# .PCD v0.7 - Point Cloud Data file format
VERSION 0.7
FIELDS x y z
SIZE 4 4 4
TYPE F F F
COUNT 1 1 1
WIDTH 2195
HEIGHT 1
VIEWPOINT 0 0 0 1 0 0 0
POINTS 2195
DATA ascii
1823.8173 -762.19232 2831
1824.2307 -751.15387 2790
1851.7212 -751.4231 2791
1864.4231 -745.76923 2770
1861.7019 -734.19232 2727
1854.6923 -721.26923 2679
1937.3077 -743.0769 2760
1926.8462 -729.0769 2708
155 2 65300
156 2 65300
157 2 65300
158 2 65300
159 2 65300
-480.76923 -162.25961 625
-443.61539 -151.61539 584
-451.5 -156.28847 602
-461.25961 -161.74039 623
-390.23077 -138.63461 534
-683.65387 -246.11539 948
-1181.8654 -431.22116 1661
-1377.875 -509.625 1963
-1420.6154 -532.73077 2052
-1334.6635 -507.54807 1955
-1377.7885 -531.43268 2047
-1332.2307 -521.30768 2008
-1348.8846 -535.58655 2063
-1441.1443 -580.75964 2237
-1458.3462 -596.59613 2298
-1335 -554.53845 2136
-1392 -587.25 2262
-1315.7307 -563.88464 2172
-1365.1923 -594.51923 2290
-1293.9038 -572.71155 2206
-1264.0385 -568.81732 2191
-1292.3269 -591.40387 2278
-1274.8846 -593.48077 2286
-1227.6923 -581.53845 2240
-1248.6923 -602.0481 2319
-1253.3654 -615.28845 2370
-1172.9423 -586.47113 2259
-1287.2885 -655.78845 2526
-1237 -642.28845 2474
-1054.3269 -558.1731 2150
-1122.1154 -605.94232 2334
-1130.2981 -622.81732 2399
-1115.5385 -627.49036 2417
-1142.0096 -656.0481 2527
-1092.9423 -641.50964 2471
35 3 65300
36 3 65300
37 3 65300
38 3 65300
39 3 65300
40 3 65300
41 3 65300
42 3 65300
43 3 65300
44 3 65300
45 3 65300
46 3 65300
47 3 65300
48 3 65300
49 3 65300
50 3 65300
51 3 65300
52 3 65300
53 3 65300
54 3 65300
-677.40387 -731.59613 2818
-615.9231 -692.91345 2669
-566.59613 -665.13464 2562
-503.25 -617.625 2379
-539.74036 -693.9519 2673
-530.38464 -716.01923 2758
-526.15387 -747.69232 2880
-498.98077 -748.47113 2883
-469.78845 -746.13464 2874
-432.46155 -729.77887 2811
-413.07693 -743.53845 2864
-366.82693 -707.4519 2725
-331.625 -688.75964 2653
-309.46155 -696.28845 2682
-269.81732 -662.27887 2551
-247.59616 -668.50964 2575
-227.85577 -683.56732 2633
-198.84616 -671.10577 2585
-174.79808 -674.22113 2597
-150.46153 -677.0769 2608
-126.05769 -680.71155 2622
-100.07692 -675.51923 2602
-79.67308 -717.05768 2762
-52.365383 -706.93268 2723
-26.423077 -713.4231 2748
0 -723.80768 2788
27.990385 -755.74036 2911
52 -702 2704
66.894234 -602.0481 2319
86.346153 -582.83655 2245
101.49039 -548.0481 2111
116.76923 -525.46155 2024
145.65384 -561.80768 2164
167.23077 -564.40387 2174
173.25 -519.75 2002
214.90384 -580.24036 2235
222.32692 -545.71155 2102
235.15384 -529.09613 2038
255.25 -530.13464 2042
269.76923 -520.26923 2004
285.86539 -514.55768 1982
304.61539 -514.03845 1980
323.32693 -513.51923 1978
346.84616 -520.26923 2004
369.03845 -524.4231 2020
380.76923 -514.03845 1980
432.11539 -555.5769 2140
451.42307 -554.01923 2134
492.50961 -578.16345 2227
508.61539 -572.19232 2204
522.83655 -564.66345 2175
528.75 -549.08655 2115
606.72113 -606.72113 2337
631.0769 -608.53845 2344
109 3 65300
110 3 65300
111 3 65300
112 3 65300
803.4231 -657.34613 2532
817.63464 -649.2981 2501
869.27887 -670.58655 2583
116 3 65300
117 3 65300
118 3 65300
1113.375 -770.7981 2969
1113.8462 -751.84613 2896
1089.6538 -717.5769 2764
1104.1154 -709.78845 2734
1202.3462 -754.96155 2908
1208.7307 -741.72113 2857
1206.7788 -724.06732 2789
1150.8846 -675.51923 2602
1182.6827 -679.41345 2617
1139.0769 -640.73077 2468
1111.4519 -612.43268 2359
1091.8269 -589.58655 2271
1320.1154 -698.88464 2692
1500 -778.84613 3000
1564.5193 -797.01923 3070
1638.6923 -819.34613 3156
1599.2307 -785.0769 3024
1671.9231 -806.10577 3105
1667.25 -789.75 3042
1672.5193 -778.58655 2999
1734.8269 -793.90387 3058
1731.9231 -779.36536 3002
1772.5193 -784.55768 3022
1763.4231 -767.94232 2958
1843.3557 -790.00964 3043
1875.0769 -791.0481 3047
1822.5 -757.03845 2916
1794.6923 -734.19232 2828
1920.4519 -773.91345 2981
1996.8462 -792.86536 3054
1972.4712 -771.83655 2973
1945.1923 -750.28845 2890
1807.7693 -687.46155 2648
1809 -678.375 2613
2009.6057 -743.27887 2863
154 3 65300
155 3 65300
156 3 65300
157 3 65300
158 3 65300
159 3 65300
-420 -136.5 546
-474.75961 -156.25 625
-483.75 -161.25 645
-409.43268 -138.25 553
-405.57693 -138.75 555
-646.15387 -224 896
-1107.8654 -389.25 1557
-1390.5096 -495.25 1981
-1431 -516.75 2067
-1364.7019 -499.75 1999
-1394.6154 -518 2072
-1401.2307 -528 2112
-1432.5769 -547.75 2191
-1451.4519 -563.25 2253
-1474.2115 -580.75 2323
-1429.375 -571.75 2287
-1395.6923 -567 2268
-1320.5769 -545 2180
-1351.4807 -566.75 2267
-1286.8654 -548.5 2194
-1309.0385 -567.25 2269
-1250.3462 -551 2204
-1283.25 -575.25 2301
-1264.9615 -577 2308
-1245.4615 -578.25 2313
-1251.25 -591.5 2366
-1241.4807 -597.75 2391
-1256.2019 -616.25 2465
-1254 -627 2508
-1164.6635 -593.75 2375
-1152.4038 -599.25 2397
-1167.5193 -619.5 2478
-1161.2307 -629 2516
-1172.7404 -648.75 2595
-1112.8462 -629 2516
35 4 65300
36 4 65300
37 4 65300
38 4 65300
39 4 65300
40 4 65300
41 4 65300
42 4 65300
43 4 65300
44 4 65300
45 4 65300
46 4 65300
47 4 65300
48 4 65300
49 4 65300
50 4 65300
51 4 65300
52 4 65300
53 4 65300
-735.75 -735.75 2943
-704.56732 -732.75 2931
-678.46155 -735 2940
-591.58655 -668.75 2675
-513.8269 -607.25 2429
-536.50964 -664.25 2657
-546.34613 -710.25 2841
-523.0481 -715.75 2863
-511.78845 -739.25 2957
-489.89423 -749.25 2997
-450.30768 -731.75 2927
-426.34616 -739 2956
-366.96155 -681.5 2726
-341.125 -682.25 2729
-308.30768 -668 2672
-271.50961 -641.75 2567
-252.69231 -657 2628
-228.80769 -661 2644
-204.30769 -664 2656
-179.64423 -667.25 2669
-151.55769 -656.75 2627
-128.41347 -667.75 2671
-102.23077 -664.5 2658
-79.644234 -690.25 2761
-53.76923 -699 2796
-27.298077 -709.75 2839
0 -720.75 2883
28.798077 -748.75 2995
54.03846 -702.5 2810
68.307693 -592 2368
87.46154 -568.5 2274
101.34615 -527 2108
122.36539 -530.25 2121
150.90384 -560.5 2242
172.15384 -559.5 2238
179.48077 -518.5 2074
203.17308 -528.25 2113
211.96153 -501 2004
236.76923 -513 2052
259.875 -519.75 2079
285.78845 -530.75 2123
294.66345 -510.75 2043
318 -516.75 2067
325.61539 -498 1992
344.42307 -497.5 1990
362.82693 -496.5 1986
382.69232 -497.5 1990
450.69232 -558 2232
460.94232 -544.75 2179
492.50961 -556.75 2227
522.23077 -565.75 2263
531.49036 -552.75 2211
545 -545 2180
599.4519 -577.25 2309
616 -572 2288
109 4 65300
110 4 65300
111 4 65300
112 4 65300
798.66345 -629.25 2517
855.88464 -654.5 2618
915.72113 -680.25 2721
116 4 65300
117 4 65300
118 4 65300
1053.375 -702.25 2809
1127.3077 -732.75 2931
1075.4615 -682 2728
1044.75 -646.75 2587
1194.0769 -722 2888
1173.6154 -693.5 2774
1125.8654 -650.5 2602
1147.3462 -648.5 2594
1142.0096 -631.75 2527
1154.3077 -625.25 2501
1135.4807 -602.5 2410
1146.1538 -596 2384
1326.9807 -676.5 2706
1565.5 -782.75 3131
1565.5385 -768 3072
1560.2885 -751.25 3005
1603.9904 -758.25 3033
1664.9231 -773 3092
1644.2307 -750 3000
1655.7885 -742.25 2969
1756.9519 -774.25 3097
1752.6923 -759.5 3038
1818.2693 -775 3100
1836.75 -770.25 3081
1828.8173 -754.75 3019
1889.2307 -767.5 3070
1801.25 -720.5 2882
1798.5 -708.5 2834
1946.2212 -755.25 3021
1990.9615 -761.25 3045
1945.2693 -733 2932
1906.1538 -708 2832
1917.6827 -702.25 2809
1909.3846 -689.5 2758
153 4 65300
154 4 65300
155 4 65300
156 4 65300
157 4 65300
158 4 65300
159 4 65300
-425.38461 -132.93269 553
-439.81732 -139.18269 579
-453.75 -145.43269 605
-479.02884 -155.52884 647
-375.61539 -123.55769 514
-697.35577 -232.45192 967
-1107.8654 -374.27884 1557
-1490.8846 -510.57693 2124
-1539.6923 -534.61536 2224
-1463.0096 -515.14423 2143
-1449.8077 -517.78845 2154
-1538.5673 -557.4519 2319
-1512.3462 -556.00964 2313
-1484.9519 -554.08655 2305
-1441.8462 -546.15387 2272
-1411.25 -542.78845 2258
-1420.9231 -555.0481 2309
-1376.3077 -546.15387 2272
-1366.3846 -550.96155 2292
-1317.9519 -540.14423 2247
-1310.7693 -546.15387 2272
-1279.8462 -542.30768 2256
-1282.6923 -552.88464 2300
-1262.2212 -553.60577 2303
-1250.3077 -558.1731 2322
-1225.8654 -557.21155 2318
-1214.4807 -562.25964 2339
-1214.4135 -572.83655 2383
-1203 -578.36536 2406
-1158.2885 -567.78845 2362
-1174.0385 -587.01923 2442
-1198.1443 -611.2981 2543
-1212.9231 -631.73077 2628
-1222.4519 -650.24036 2705
-1129.6538 -613.94232 2554
35 5 65300
36 5 65300
37 5 65300
38 5 65300
39 5 65300
40 5 65300
41 5 65300
42 5 65300
43 5 65300
44 5 65300
45 5 65300
46 5 65300
47 5 65300
48 5 65300
49 5 65300
50 5 65300
51 5 65300
52 5 65300
53 5 65300
-764.75 -735.33655 3059
-698.31732 -698.31732 2905
-669.23077 -697.11536 2900
-596.23077 -648.0769 2696
-501.98077 -570.43268 2373
-541.75964 -644.9519 2683
-535.19232 -668.99036 2783
-535.65387 -704.80768 2932
-507.46155 -704.80768 2932
-492.83655 -724.75964 3015
-473.69232 -740.14423 3079
-469.18268 -781.97113 3253
-409.5 -731.25 3042
-366.25 -704.3269 2930
-337.38461 -702.88464 2924
-309.58655 -703.60577 2927
-288.46155 -721.15387 3000
-254.94231 -708.1731 2946
-225.38461 -704.3269 2930
-198.625 -709.375 2951
-170.59616 -710.81732 2957
-139.375 -696.875 2899
-108.88461 -680.52887 2831
-86.884613 -724.03845 3012
-57.03846 -712.98077 2966
-27.721153 -693.02887 2883
0 -671.15387 2792
28.240385 -706.00964 2937
54 -675 2808
74.365387 -619.71155 2578
95.884613 -599.27887 2493
108.07692 -540.38464 2248
123.46154 -514.4231 2140
145.51923 -519.71155 2162
166.92308 -521.63464 2170
181.64423 -504.56732 2099
202.30769 -505.76923 2104
220.31731 -500.72116 2083
247.15384 -514.90387 2142
248.125 -477.16345 1985
298.98077 -533.89423 2221
306.20193 -510.33655 2123
314.76923 -491.82693 2046
311.39423 -457.93268 1905
348.40384 -483.89423 2013
389.68268 -512.74036 2133
400.96155 -501.20193 2085
462.80768 -550.96155 2292
469.82693 -533.89423 2221
458.23077 -498.07693 2072
486.46155 -506.73077 2108
512.98077 -512.98077 2134
566.5 -544.71155 2266
662.53845 -613.46155 2552
108 5 65300
109 5 65300
110 5 65300
111 5 65300
112 5 65300
113 5 65300
941.53845 -692.30768 2880
987.40387 -705.28845 2934
116 5 65300
117 5 65300
118 5 65300
1024.125 -656.49036 2731
1055.7693 -659.85577 2745
1036.0385 -631.73077 2628
1061.7115 -631.97113 2629
1166.7885 -678.36536 2822
1195.1923 -679.08655 2825
1182.9807 -657.21155 2734
1133.6346 -616.10577 2563
1152.8557 -613.22113 2551
1150.6154 -599.27887 2493
1137.3654 -580.28845 2414
1093.2693 -546.63464 2274
1327.4712 -650.72113 2707
1551 -745.6731 3102
133 5 65300
1626.75 -753.125 3133
1606.1057 -730.0481 3037
1638.5385 -731.49036 3043
1622.8557 -711.77887 2961
1637.9423 -706.00964 2937
1707.5962 -723.55768 3010
1753.8462 -730.76923 3040
1813.5769 -743.26923 3092
1809.3269 -729.56732 3035
1865.7693 -740.38464 3080
1852.3077 -723.55768 3010
1666.875 -641.10577 2667
1667.1346 -631.49036 2627
1964.9038 -733.1731 3050
1911.1923 -702.64423 2923
1945.2693 -704.80768 2932
1933.0769 -690.38464 2872
1868.5288 -657.93268 2737
1963.3846 -681.73077 2836
153 5 65300
154 5 65300
155 5 65300
156 5 65300
157 5 65300
158 5 65300
159 5 65300
-438.46155 -131.53847 570
-445.89423 -135.46153 587
-478.5 -147.23077 638
-433.125 -135 585
-449.42307 -141.92308 615
-682.93268 -218.53847 947
-1138.4615 -369.23077 1600
7 6 65300
-1541.7693 -513.9231 2227
-1551.7596 -524.53845 2273
10 6 65300
-1715.7115 -596.76923 2586
-1573.8077 -555.46155 2407
-1481.0865 -530.53845 2299
-1462.7885 -531.9231 2305
-1428.75 -527.53845 2286
-1407.3846 -527.76923 2287
-1396.2981 -531.9231 2305
-1362.8077 -527.53845 2286
-1330.8557 -523.61536 2269
-1337.8846 -535.15387 2319
-1295.7307 -527.0769 2284
-1279.9038 -529.61536 2295
-1264.9615 -532.61536 2308
-1275.6154 -546.69232 2369
-1251.25 -546 2366
-1253.4231 -557.0769 2414
-1226.1346 -555.23077 2406
-1210.5 -558.69232 2421
-1195.0673 -562.38464 2437
-1184.1346 -568.38464 2463
-1212.75 -594 2574
-1251.2307 -625.61536 2711
-1175.9038 -600.46155 2602
34 6 65300
35 6 65300
36 6 65300
37 6 65300
-1245.4615 -711.69232 3084
39 6 65300
40 6 65300
41 6 65300
42 6 65300
43 6 65300
44 6 65300
45 6 65300
46 6 65300
47 6 65300
48 6 65300
49 6 65300
50 6 65300
51 6 65300
52 6 65300
53 6 65300
-807.5 -745.38464 3230
-766.58655 -735.9231 3189
-730.38464 -730.38464 3165
-664.56732 -693.46155 3005
-539 -588 2548
-542.36536 -619.84613 2686
-539.80768 -647.76923 2807
-533.09613 -673.38464 2918
-530.30768 -707.0769 3064
-506.56732 -715.15387 3099
-499.38461 -749.0769 3246
-470.91345 -753.46155 3265
-440.86539 -755.76923 3275
-378.75 -699.23077 3030
-364.73077 -729.46155 3161
-319.10577 -696.23077 3017
-298.65384 -716.76923 3106
-258.05768 -688.15387 2982
-230.15384 -690.46155 2992
-202.86539 -695.53845 3014
-175.78847 -703.15387 3047
-146.29808 -702.23077 3043
-111.19231 -667.15387 2891
-87.83654 -702.69232 3045
-58.076923 -696.9231 3020
-28.961538 -695.0769 3012
0 -682.84613 2959
28.711538 -689.0769 2986
55.51923 -666.23077 2887
78.028847 -624.23077 2705
95.115387 -570.69232 2473
107.45192 -515.76923 2235
122.19231 -488.76923 2118
144.71153 -496.15384 2150
170.23077 -510.69232 2213
182.94231 -487.84616 2114
205 -492 2132
220.10577 -480.23077 2081
243 -486 2106
260.875 -481.61539 2087
301.94232 -517.61536 2243
287.74039 -460.38461 1995
306.61539 -459.92307 1993
342.61539 -483.69232 2096
349.26923 -465.69232 2018
386.02884 -487.61539 2113
431.53845 -517.84613 2244
459.17307 -524.76923 2274
471.94232 -514.84613 2231
482.77884 -503.76923 2183
508.38461 -508.38461 2203
532.69232 -511.38461 2216
532 -491.07693 2128
107 6 65300
108 6 65300
109 6 65300
110 6 65300
111 6 65300
112 6 65300
113 6 65300
965.73077 -681.69232 2954
969.23077 -664.61536 2880
988.61536 -659.0769 2856
1034.5769 -671.0769 2908
118 6 65300
1051.125 -646.84613 2803
1132.6923 -679.61536 2945
1084.5288 -634.84613 2751
1077.0577 -615.46155 2667
1162.6538 -648.9231 2812
1136.3846 -619.84613 2686
1189.4712 -634.38464 2749
1165.4807 -608.0769 2635
1164.1538 -594.46155 2576
1161.2307 -580.61536 2516
1156.6827 -566.53845 2455
1151.4423 -552.69232 2395
1337.7693 -629.53845 2728
1503.5 -693.9231 3007
133 6 65300
134 6 65300
1586.0096 -692.0769 2999
1655.2307 -709.38464 3074
1620.6635 -682.38464 2957
1628.4615 -673.84613 2920
1741.0673 -708.23077 3069
1768.2693 -707.30768 3065
1778.9712 -699.9231 3033
1831.9807 -709.15387 3073
1831.8462 -697.84613 3024
1868.3077 -700.61536 3036
1743.75 -643.84613 2790
1735.6731 -631.15387 2735
1901.7693 -681.23077 2952
1875.2307 -661.84613 2868
149 6 65300
150 6 65300
1843.9519 -623.30768 2701
1928.7693 -642.9231 2786
153 6 65300
154 6 65300
155 6 65300
156 6 65300
157 6 65300
158 6 65300
159 6 65300
-432.30768 -124.28846 562
-449.69232 -130.92308 592
-486 -143.30769 648
-415.35577 -124.06731 561
-431.88461 -130.70192 591
-625.96155 -191.96153 868
-1106.4423 -343.89423 1555
7 7 65300
8 7 65300
9 7 65300
10 7 65300
11 7 65300
-1716.3462 -580.52887 2625
-1548.0865 -531.43268 2403
-1500.8654 -523.02887 2365
-1440.625 -509.75961 2305
-1416 -508.875 2301
-1437.4904 -524.7981 2373
-1413.4807 -524.35577 2371
-1339.6538 -505.11539 2284
-1355.7693 -519.71155 2350
-1297.4327 -505.77884 2287
-1307.2307 -518.38464 2344
-1283.5962 -517.94232 2342
-1261.6154 -518.16345 2343
-1239.0865 -518.16345 2343
-1229.0193 -523.47113 2367
-1223.0769 -530.76923 2400
-1212.5 -536.2981 2425
-1195.5577 -539.1731 2438
-1210.0962 -556.64423 2517
-1273.5288 -597.77887 2703
-1254.4615 -601.09613 2718
33 7 65300
34 7 65300
35 7 65300
36 7 65300
37 7 65300
-1308.0577 -716.31732 3239
-1267.0577 -710.78845 3214
-1215.7693 -699.06732 3161
-1153.875 -680.49036 3077
-1075.3269 -650.85577 2943
43 7 65300
44 7 65300
45 7 65300
46 7 65300
47 7 65300
48 7 65300
49 7 65300
50 7 65300
51 7 65300
52 7 65300
-742.24036 -632.27887 2859
-785 -694.4231 3140
-727.64423 -669.43268 3027
-707.30768 -677.83655 3065
-643.55768 -643.55768 2910
-521.44232 -545.14423 2465
-560.33655 -613.7019 2775
-542.88464 -624.31732 2823
-525.4231 -636.03845 2876
-513.34613 -655.94232 2966
-514.25 -695.75 3146
-487.23077 -700.39423 3167
-473.79807 -726.49036 3285
-442.21155 -726.49036 3285
-380.875 -673.85577 3047
-352.96155 -676.50964 3059
-318.78845 -666.55768 3014
-289.03845 -664.78845 3006
-262.03845 -669.65387 3028
-228.84616 -657.93268 2975
-194.78847 -640.01923 2894
-164.01923 -628.74036 2843
-142.06731 -653.50964 2955
-114.5 -658.375 2977
-86.769234 -665.23077 3008
-58.365383 -671.2019 3035
-29.471153 -677.83655 3065
0 -676.28845 3058
29.182692 -671.2019 3035
56.5 -649.75 2938
77.25 -592.25 2678
93.384613 -536.96155 2428
114.47115 -526.56732 2381
134.53847 -515.73077 2332
145.85577 -479.24039 2167
173 -497.375 2249
184.93269 -472.60577 2137
206.73077 -475.48077 2150
221.90384 -463.98077 2098
244.96153 -469.50961 2123
257.5 -455.57693 2060
285.78845 -469.50961 2123
279.23077 -428.15384 1936
322 -462.875 2093
351.60577 -475.70193 2151
372.11539 -475.48077 2150
423.11539 -512.19232 2316
430 -494.5 2236
420.60577 -460.66345 2083
444.44232 -464.64423 2101
487.86539 -487.86539 2206
509.30768 -488.08655 2207
537.98077 -494.94232 2238
551.25 -487.64423 2205
107 7 65300
108 7 65300
109 7 65300
110 7 65300
111 7 65300
112 7 65300
113 7 65300
114 7 65300
115 7 65300
116 7 65300
117 7 65300
118 7 65300
119 7 65300
1143.4615 -657.49036 2973
1125.9231 -631.61536 2856
1155.4038 -632.72113 2861
1144.0481 -611.93268 2767
1147.3846 -599.76923 2712
1147.5 -586.5 2652
1145.5769 -572.78845 2590
1160.0865 -567.7019 2567
1170 -560.625 2535
1116.1635 -523.91345 2369
1173.5577 -539.83655 2441
1328.9423 -599.3269 2710
1508 -667 3016
1423.8654 -617.90387 2794
1453.3269 -619.00964 2799
1489.2307 -622.76923 2816
1565.8462 -643.11536 2908
1584.4904 -639.35577 2891
1598.3462 -633.8269 2866
1670.7212 -651.2981 2945
1680 -644 2912
1770.7596 -667.66345 3019
1748.5193 -648.64423 2933
1780.3557 -649.97113 2939
1819.6923 -653.9519 2957
1808.75 -640.01923 2894
1789.6154 -623.65387 2820
1937.8462 -665.23077 3008
1900.7307 -642.89423 2907
149 7 65300
150 7 65300
1882.1827 -609.72113 2757
2007.6923 -641.34613 2900
153 7 65300
154 7 65300
155 7 65300
156 7 65300
157 7 65300
158 7 65300
159 7 65300
-442.30768 -121.63461 575
-450.45193 -125.44231 593
-522.75 -147.44231 697
-474.58655 -135.59616 641
-427.5 -123.75 585
-622.35577 -182.55769 863
-1267.9615 -376.96155 1782
7 8 65300
8 8 65300
9 8 65300
10 8 65300
11 8 65300
12 8 65300
-1548.0865 -508.32693 2403
-1537.6731 -512.55768 2423
-1426.25 -482.73077 2282
-1441.8462 -495.63461 2343
-1429.6154 -499.23077 2360
-1417.0577 -502.82693 2377
-1367.2212 -493.09616 2331
-1379.4231 -505.78845 2391
-1330.3365 -496.05768 2345
-1298.3077 -492.46155 2328
-1278.1154 -493.30768 2332
-1275.0769 -500.92307 2368
-1227.9807 -491.19232 2322
-1233.6923 -502.61539 2376
-1244.9904 -516.78845 2443
-1192 -504.30768 2384
-1214.1923 -523.76923 2476
-1197.5962 -526.94232 2491
-1217.4615 -546.61536 2584
32 8 65300
33 8 65300
34 8 65300
35 8 65300
36 8 65300
37 8 65300
-1314.9231 -688.76923 3256
-1282.4327 -688.13464 3253
-1257.3077 -691.51923 3269
-1195.875 -674.59613 3189
-1142.9231 -661.69232 3128
43 8 65300
44 8 65300
45 8 65300
46 8 65300
47 8 65300
48 8 65300
49 8 65300
50 8 65300
51 8 65300
52 8 65300
-760.15387 -619.38464 2928
-811.5 -686.65387 3246
-752.88464 -662.53845 3132
-728.76923 -668.03845 3158
-650.41345 -622.13464 2941
-536.25 -536.25 2535
-562.15387 -588.9231 2784
-547.69232 -602.46155 2848
-550.63464 -637.5769 3014
-521.48077 -637.36536 3013
-508.03845 -657.46155 3108
-489.23077 -672.69232 3180
-469.75961 -688.98077 3257
-453.11539 -712.03845 3366
-396 -670.15387 3168
-367.84616 -674.38464 3188
-327.88461 -655.76923 3100
-295.96155 -651.11536 3078
-268.26923 -655.76923 3100
-237.61539 -653.44232 3089
-201.85577 -634.40387 2999
-170.59616 -625.51923 2957
-144.66347 -636.51923 3009
-115.73077 -636.51923 3009
-88.78846 -651.11536 3078
-58.942307 -648.36536 3065
-29.692308 -653.23077 3088
0 -679.03845 3210
29.75 -654.5 3094
57.28846 -630.1731 2979
78.317307 -574.3269 2715
96.42308 -530.3269 2507
113.02885 -497.32693 2351
134.94231 -494.78845 2339
152.25 -478.5 2262
174 -478.5 2262
186.92308 -456.92307 2160
202.21153 -444.86539 2103
229.625 -459.25 2171
241.84616 -443.38461 2096
259.375 -438.94232 2075
285.11539 -448.03845 2118
302.01923 -442.96155 2094
317.07693 -435.98077 2061
346.70193 -448.67307 2121
381.28845 -466.01923 2203
406.67307 -470.88461 2226
411.92307 -453.11539 2142
437.76923 -458.61539 2168
448.46155 -448.46155 2120
472.82693 -452.26923 2138
483.23077 -442.96155 2094
543.26923 -478.07693 2260
512.25 -433.44232 2049
107 8 65300
108 8 65300
109 8 65300
110 8 65300
111 8 65300
112 8 65300
113 8 65300
114 8 65300
115 8 65300
116 8 65300
117 8 65300
118 8 65300
119 8 65300
1143.8462 -629.11536 2974
1125.1346 -603.73077 2854
1150.1538 -602.46155 2848
1172.1635 -599.71155 2835
1170.6538 -585.3269 2767
1159.1827 -566.71155 2679
1164.1538 -556.76923 2632
1122.125 -525.25 2483
1162.6154 -532.86536 2519
1152.9135 -517.63464 2447
1171.6346 -515.51923 2437
1352.9712 -583.63464 2759
1542 -652.38464 3084
1473.2981 -611.55768 2891
1490.1923 -607.11536 2870
1535.2404 -614.09613 2903
1589 -624.25 2951
1604.7693 -619.38464 2928
1612.8462 -611.76923 2892
1728.5865 -644.55768 3047
1699.0385 -622.98077 2945
1775.4519 -640.3269 3027
1793.2307 -636.30768 3008
1799.1346 -628.26923 2970
1849.2307 -635.6731 3005
1898.75 -642.65387 3038
1891.1538 -630.38464 2980
1950.7307 -640.53845 3028
1975.9231 -639.26923 3022
2020.9038 -644.34613 3046
150 8 65300
151 8 65300
2087.3076 -637.78845 3015
2074.1826 -625.09613 2955
154 8 65300
155 8 65300
156 8 65300
157 8 65300
158 8 65300
159 8 65300
-448.46155 -117.72115 583
-429.18268 -114.08654 565
-474.75 -127.81731 633
-446.45193 -121.75961 603
-456.73077 -126.20192 625
-646.15387 -180.92308 896
-1245.1923 -353.36539 1750
7 9 65300
8 9 65300
9 9 65300
10 9 65300
11 9 65300
12 9 65300
-1783.2307 -558.9231 2768
-1655.0769 -526.61536 2608
-1500 -484.61539 2400
-1479.3846 -485.42307 2404
-1422.9519 -474.31732 2349
-1394.4038 -472.29807 2339
-1387.1635 -477.54807 2365
-1384.6154 -484.61539 2400
-1335.4423 -475.32693 2354
-1336.2307 -483.80768 2396
-1304.9712 -480.77884 2381
-1335.3846 -500.76923 2480
-1272.9327 -486.02884 2407
-1254.9807 -488.04807 2417
-1234.7981 -489.25961 2423
-1245 -502.78845 2490
-1343.1635 -553.06732 2739
-1279.3269 -537.31732 2661
31 9 65300
32 9 65300
33 9 65300
34 9 65300
35 9 65300
36 9 65300
37 9 65300
-1329.0577 -664.52887 3291
-1261.5385 -646.15387 3200
-1221.5385 -641.30768 3176
-1198.125 -645.14423 3195
-1115.1538 -616.26923 3052
43 9 65300
44 9 65300
45 9 65300
46 9 65300
47 9 65300
48 9 65300
49 9 65300
50 9 65300
51 9 65300
52 9 65300
-760.41345 -591.43268 2929
-782.75 -632.22113 3131
-771.875 -648.375 3211
-736.61536 -644.53845 3192
-646.21155 -590.01923 2922
-520.59613 -496.93268 2461
-575.48077 -575.48077 2850
-559.03845 -586.99036 2907
-543.875 -601.125 2977
-522.86536 -610.00964 3021
-509.34616 -629.19232 3116
-491.38461 -644.94232 3194
-460.38461 -644.53845 3192
-441 -661.5 3276
-379.875 -613.64423 3039
-357.34616 -625.35577 3097
-325.55768 -621.51923 3078
-294.42307 -618.28845 3062
-276.75 -645.75 3198
-247.53847 -649.78845 3218
-210.74039 -632.22113 3131
-180.63461 -632.22113 3131
-152.69231 -641.30768 3176
-121.26923 -636.66345 3153
-90.605766 -634.24036 3141
-61.5 -645.75 3198
-29.961538 -629.19232 3116
0 -634.03845 3140
29.951923 -628.99036 3115
57.384617 -602.53845 2984
79.759613 -558.31732 2765
99.57692 -522.77887 2589
115.43269 -484.81732 2401
136.09616 -476.33655 2359
160.59616 -481.78845 2386
188.38461 -494.50961 2449
211.58653 -493.70193 2445
236.73077 -497.13461 2462
250.77884 -478.75961 2371
271.38461 -474.92307 2352
294.375 -475.52884 2355
313.78845 -470.68268 2331
339.08655 -474.72116 2351
355.07693 -466.03845 2308
367.46155 -453.92307 2248
372.80768 -434.94232 2154
406.49039 -449.27884 2225
426.73077 -448.06732 2219
432.11539 -432.11539 2140
444.44232 -424.24039 2101
472.82693 -431.71155 2138
490.15384 -428.88461 2124
591.10577 -496.52884 2459
106 9 65300
107 9 65300
108 9 65300
109 9 65300
110 9 65300
111 9 65300
112 9 65300
113 9 65300
114 9 65300
115 9 65300
116 9 65300
117 9 65300
118 9 65300
119 9 65300
1119.6154 -587.7981 2911
1116.0673 -571.64423 2831
1102.5 -551.25 2730
1132.8846 -553.26923 2740
1171.5 -559.125 2769
1174.7596 -548.22113 2715
1153.9807 -526.81732 2609
1152.4038 -514.90387 2550
1133.0769 -495.72116 2455
1150.5577 -493.09616 2442
1145.1923 -480.98077 2382
1336.7885 -550.44232 2726
1472 -594.46155 2944
1581.3365 -626.56732 3103
1603.9038 -623.74036 3089
1547.4038 -590.8269 2926
1606.2307 -602.33655 2983
1613.5385 -594.46155 2944
1633.4807 -591.43268 2929
1755.25 -624.75 3094
1731.3462 -605.97113 3001
1741.4327 -599.50964 2969
1815.2885 -614.85577 3045
1824.5769 -608.19232 3012
1858.4615 -609.80768 3020
1916.25 -619.09613 3066
1883.5385 -599.30768 2968
1883.0865 -590.22113 2923
1956.9615 -604.35577 2993
1957.2115 -595.6731 2950
1886.6346 -565.99036 2803
151 9 65300
2057.5386 -600.11536 2972
2029.2596 -583.75964 2891
2118.9614 -601.3269 2978
155 9 65300
156 9 65300
157 9 65300
158 9 65300
159 9 65300
-488.46155 -122.11539 635
-499.06732 -126.34615 657
-446.25 -114.42308 595
-434.60577 -112.88461 587
-450.88461 -118.65385 617
-630.28845 -168.07692 874
-1188.9807 -321.34616 1671
7 10 65300
8 10 65300
9 10 65300
10 10 65300
11 10 65300
12 10 65300
-1836.0577 -548.0769 2850
-1823.25 -552.5 2873
-1664.375 -512.11536 2663
-1518.1538 -474.42307 2467
-1392.0577 -441.92307 2298
-1371.75 -442.5 2301
-1390.0962 -455.76923 2370
-1372.5 -457.5 2379
-1342.8173 -455.19232 2367
-1338.4615 -461.53845 2400
-1309.3557 -459.42307 2389
-1321.3846 -471.92307 2454
-1277.1635 -464.42307 2415
-1258.0962 -465.96155 2423
-1255.6923 -473.84616 2464
-1283.5 -493.65384 2567
-1319.1346 -517.30768 2690
-1231.25 -492.5 2561
31 10 65300
32 10 65300
33 10 65300
34 10 65300
35 10 65300
36 10 65300
37 10 65300
-1341.9807 -639.03845 3323
-1246.9519 -608.26923 3163
-1235.3846 -617.69232 3212
-1225.125 -628.26923 3267
-1142.1923 -601.15387 3126
43 10 65300
44 10 65300
45 10 65300
46 10 65300
47 10 65300
48 10 65300
49 10 65300
50 10 65300
51 10 65300
52 10 65300
-779.36536 -577.30768 3002
-788.75 -606.73077 3155
-781.97113 -625.5769 3253
-734.0769 -611.73077 3181
-657.49036 -571.73077 2973
-552.11536 -501.92307 2610
-563.36536 -536.53845 2790
-556.34613 -556.34613 2893
-539.30768 -567.69232 2952
-522.51923 -580.5769 3019
-511.96155 -602.30768 3132
-499.69232 -624.61536 3248
-472.93268 -630.5769 3279
-446.78845 -638.26923 3319
-398 -612.30768 3184
-370.38461 -617.30768 3210
-344.59616 -626.53845 3258
-308.84616 -617.69232 3212
-281.94232 -626.53845 3258
-250.76923 -626.9231 3260
-222.25 -635 3302
-188.07692 -626.9231 3260
-158.41347 -633.65387 3295
-125.57692 -627.88464 3265
-94.096153 -627.30768 3262
-63.346153 -633.46155 3294
-30.701923 -614.03845 3193
0 -611.15387 3178
30.538462 -610.76923 3176
58.153847 -581.53845 3024
84.980766 -566.53845 2946
104.19231 -520.96155 2709
122.74039 -490.96155 2553
138.98077 -463.26923 2409
162.75 -465 2418
187.76923 -469.42307 2441
202.32692 -449.61539 2338
232.40384 -464.80768 2417
243.90384 -443.46155 2306
271.61539 -452.69232 2354
289.125 -444.80768 2313
315.13461 -450.19232 2341
320.91345 -427.88461 2225
346.15384 -432.69232 2250
364.68268 -429.03845 2231
384.40384 -427.11539 2221
405.75961 -427.11539 2221
432.88461 -432.88461 2251
443.22116 -422.11539 2195
469.19232 -426.53845 2218
492.28845 -428.07693 2226
514.38464 -428.65384 2229
612.5 -490 2548
106 10 65300
107 10 65300
108 10 65300
109 10 65300
110 10 65300
111 10 65300
112 10 65300
113 10 65300
114 10 65300
115 10 65300
116 10 65300
117 10 65300
118 10 65300
119 10 65300
1143.4615 -571.73077 2973
1137.75 -555 2886
1138.0385 -541.9231 2818
1149.4231 -534.61536 2780
1164.7307 -529.4231 2753
1160.0481 -515.5769 2681
1229.6154 -534.61536 2780
1173.6443 -499.42307 2597
1187.0769 -494.61539 2572
1201.4423 -490.38461 2550
1195.6731 -478.26923 2487
1378.4712 -540.5769 2811
1503.5 -578.26923 3007
1587.9615 -599.23077 3116
1638.6923 -606.9231 3156
1560.625 -567.5 2951
1609.4615 -574.80768 2989
1636.5577 -574.23077 2986
1672.5193 -576.73077 2999
1744.4712 -591.34613 3075
1752.6923 -584.23077 3038
1822.375 -597.5 3107
1811.7115 -584.4231 3039
1862.7404 -591.34613 3075
1855.3846 -579.80768 3015
1908.75 -587.30768 3054
1947 -590 3068
1950.0865 -582.11536 3027
1975.2693 -580.96155 3021
1999.0096 -579.4231 3013
2004.4231 -572.69232 2978
2059.6826 -580.19232 3017
2076.9231 -576.9231 3000
2099.4519 -575.19232 2991
2090.5 -565 2938
155 10 65300
156 10 65300
157 10 65300
158 10 65300
159 10 65300
-450 -106.875 585
-455.76923 -109.61539 600
-465 -113.26923 620
-444.97116 -109.79808 601
-434.80768 -108.70192 595
-645.43268 -163.50961 895
-1176.1731 -301.99039 1653
7 11 65300
8 11 65300
9 11 65300
10 11 65300
11 11 65300
12 11 65300
-1938.4904 -549.72113 3009
-1905.1154 -548.44232 3002
-1859.375 -543.50964 2975
-1766.7693 -524.50964 2871
-1579.2404 -476.27884 2607
-1522.5769 -466.59616 2554
-1500.3654 -467.32693 2558
-1502.8846 -475.91345 2605
-1388.7693 -447.23077 2448
-1347.9423 -441.56732 2417
-1344.9807 -448.32693 2454
-1381.6923 -468.78845 2566
-1493.4615 -515.9231 2824
-1452.2885 -510.99039 2797
-1397.875 -501.125 2743
-1345.5 -491.625 2691
-1340.7115 -499.48077 2734
-1393.2693 -529.44232 2898
31 11 65300
32 11 65300
33 11 65300
34 11 65300
35 11 65300
36 11 65300
37 11 65300
-1342.7885 -607.4519 3325
-1306.0865 -605.25964 3313
-1272.3077 -604.34613 3308
-1211.625 -590.27887 3231
-1144.0193 -572.00964 3131
43 11 65300
44 11 65300
45 11 65300
46 11 65300
47 11 65300
48 11 65300
49 11 65300
50 11 65300
51 11 65300
52 11 65300
-810.77887 -570.5481 3123
-799.25 -584.06732 3197
-766.34613 -582.4231 3188
-723.46155 -572.74036 3135
-668.5481 -552.27887 3023
-554.01923 -478.47116 2619
-582.14423 -526.7019 2883
-560.38464 -532.36536 2914
-540.58655 -540.58655 2959
-536.19232 -565.98077 3098
-516.0481 -576.75964 3157
-505.38461 -600.14423 3285
-472.21155 -598.13464 3274
-449.88461 -610.55768 3342
-392 -572.9231 3136
-368.30768 -583.15387 3192
-337.61539 -583.15387 3192
-309.32693 -587.72113 3217
-280.64423 -592.47113 3243
-248.46153 -590.09613 3230
-216.46153 -587.53845 3216
-186.63461 -591.00964 3235
-155.09616 -589.36536 3226
-122.53846 -582.05768 3186
-90.259613 -571.64423 3129
-61.596153 -585.16345 3203
-30.740385 -584.06732 3197
0 -581.875 3185
29.961538 -569.26923 3116
57.923077 -550.26923 3012
85.70192 -542.77887 2971
110.76923 -526.15387 2880
124.51923 -473.17307 2590
144.86539 -458.74039 2511
161.06731 -437.18268 2393
184.84616 -439.00961 2403
201.46153 -425.30768 2328
220.67308 -419.27884 2295
249.19231 -430.42307 2356
268.03845 -424.39423 2323
286 -418 2288
316.07693 -428.96155 2348
331.58655 -420.00961 2299
354.46155 -420.92307 2304
373.67307 -417.63461 2286
383.88461 -405.21155 2218
411.97116 -411.97116 2255
432.69232 -411.05768 2250
456.14423 -412.70193 2259
486.11539 -419.82693 2298
521.48077 -430.78845 2358
549 -434.625 2379
105 11 65300
106 11 65300
107 11 65300
108 11 65300
109 11 65300
110 11 65300
111 11 65300
112 11 65300
113 11 65300
114 11 65300
115 11 65300
116 11 65300
117 11 65300
118 11 65300
119 11 65300
1127.6923 -535.65387 2932
1144.4519 -530.35577 2903
1155.4038 -522.68268 2861
1181.2596 -521.9519 2857
1204.0769 -519.94232 2846
1203.75 -508.25 2782
1159.2885 -478.83655 2621
1133.875 -458.375 2509
1163.0769 -460.38461 2520
1174.1154 -455.26923 2492
1209.1346 -459.47116 2515
1362.2885 -507.51923 2778
1465.5 -535.47113 2931
1595.0962 -571.8269 3130
1685.9423 -593.2019 3247
1573.3173 -543.50964 2975
1614.3077 -547.71155 2998
1666.7019 -555.56732 3041
1704.3077 -558.30768 3056
1724.6154 -555.38464 3040
1750.3846 -554.28845 3034
1814.1635 -565.06732 3093
1805.1538 -553.19232 3028
1807.0096 -544.97113 2983
1843.6923 -547.34613 2996
1907.5 -557.5769 3052
1914 -551 3016
1964.2596 -557.02887 3049
1939.3077 -541.86536 2966
2002.9904 -551.5481 3019
2009.8077 -545.51923 2986
2035.7885 -544.78845 2982
2035.3846 -537.11536 2940
2095.2405 -545.33655 2985
2082.6731 -534.74036 2927
2136.0576 -541.13464 2962
2162.3462 -540.58655 2959
157 11 65300
158 11 65300
159 11 65300
-505.38461 -113.71154 657
-413.23077 -94.153847 544
-466.5 -107.65385 622
-451.63461 -105.57692 610
-428.96155 -101.59615 587
-602.88464 -144.69231 836
-1127.0769 -274.15384 1584
7 12 65300
8 12 65300
9 12 65300
10 12 65300
11 12 65300
12 12 65300
-1935.9135 -520.09613 3005
-1951.4423 -532.21155 3075
-1947.5 -539.30768 3116
-1905.8462 -536.01923 3097
17 12 65300
18 12 65300
19 12 65300
20 12 65300
-1304.8077 -398.07693 2300
-1335.1154 -414.34616 2394
-1322.5096 -417.63461 2413
-1401.6154 -450.51923 2603
-1520.9615 -497.76923 2876
-1596.1154 -532.03845 3074
-1379.0193 -468.34616 2706
-1347 -466.26923 2694
-1403.9712 -495.51923 2863
-1578.3654 -568.21155 3283
-1512.4038 -555.5769 3210
-1524 -571.5 3302
-1486.375 -569.25 3289
-1452.5385 -568.38464 3284
-1431.3462 -572.53845 3308
-1401.2307 -573.23077 3312
-1355.7404 -567.51923 3279
-1323.8077 -567.34613 3278
-1275.7307 -560.0769 3236
-1268.0769 -570.63464 3297
-1222.5 -564.23077 3260
-1143.2885 -541.55768 3129
43 12 65300
44 12 65300
45 12 65300
46 12 65300
47 12 65300
48 12 65300
49 12 65300
50 12 65300
51 12 65300
52 12 65300
-832.84613 -555.23077 3208
-796.5 -551.4231 3186
-765.625 -551.25 3185
-732.23077 -549.1731 3173
-656.60577 -513.86536 2969
-552.3269 -451.90384 2611
-581.74036 -498.63461 2881
-574.03845 -516.63464 2985
-562.50964 -532.90387 3079
-531.1731 -531.1731 3069
-518.00964 -548.48077 3169
-504.76923 -567.86536 3281
-470.91345 -565.09613 3265
-444.90384 -572.01923 3305
-389.625 -539.48077 3117
-373.15384 -559.73077 3234
-346.07693 -566.30768 3272
-310.76923 -559.38464 3232
-282.63461 -565.26923 3266
-251.46153 -565.78845 3269
-216.66347 -557.13464 3219
-186.63461 -559.90387 3235
-154.61539 -556.61536 3216
-125.26923 -563.71155 3257
-93.519234 -561.11536 3242
-62.115383 -559.03845 3230
-30.826923 -554.88464 3206
0 -555.40387 3209
30.73077 -553.15387 3196
59.384617 -534.46155 3088
88.096153 -528.5769 3054
116.69231 -525.11536 3034
137.69231 -495.69232 2864
148.09616 -444.28845 2567
162.14423 -416.94232 2409
183.76923 -413.48077 2389
206.65384 -413.30768 2388
224.71153 -404.48077 2337
245.59616 -401.88461 2322
266.07693 -399.11539 2306
288 -398.76923 2304
307.32693 -395.13461 2283
331.58655 -397.90384 2299
348.46155 -392.01923 2265
362.88461 -384.23077 2220
385.96155 -385.96155 2230
410.875 -389.25 2249
431.53845 -388.38461 2244
463.61539 -397.38461 2296
479.76923 -392.53845 2268
528.77887 -413.82693 2391
104 12 65300
105 12 65300
106 12 65300
107 12 65300
108 12 65300
109 12 65300
110 12 65300
111 12 65300
112 12 65300
113 12 65300
114 12 65300
115 12 65300
116 12 65300
117 12 65300
118 12 65300
119 12 65300
1126.9231 -507.11539 2930
1150.7596 -505.21155 2919
1146.9231 -491.53845 2840
1172.9904 -491.01923 2837
1194.7693 -488.76923 2824
1176.9231 -470.76923 2720
1213.6923 -474.92307 2744
1186.2981 -454.32693 2625
1221.6923 -458.13461 2647
1183.5385 -434.76923 2512
1175.9615 -423.34616 2446
1397.1057 -493.09616 2849
1460 -505.38461 2920
1603.7596 -544.6731 3147
1664.6538 -554.88464 3206
1599.2307 -523.38464 3024
1639.6154 -527.01923 3045
1686.9807 -532.73077 3078
1715.4615 -532.38464 3076
1730.2885 -527.88464 3050
1799.4231 -539.8269 3119
1795.9807 -529.96155 3062
1820.0577 -528.40387 3053
1858.5 -531 3068
1888 -531 3068
1939.375 -537.05768 3103
1919.0769 -523.38464 3024
1948.1538 -523.38464 3024
1981.1538 -524.4231 3030
2002.9904 -522.51923 3019
2043.4615 -525.46155 3036
2049.4424 -519.5769 3002
2060.3076 -515.0769 2976
2107.875 -519.75 3003
2069.1538 -503.30768 2908
155 12 65300
156 12 65300
157 12 65300
158 12 65300
159 12 65300
-495.38461 -105.26923 644
-417.02884 -89.740387 549
-428.25 -93.33654 571
-440.52884 -97.259613 595
-464.76923 -103.96154 636
-613.7019 -139.10577 851
-1037.4231 -238.32692 1458
7 13 65300
8 13 65300
9 13 65300
10 13 65300
11 13 65300
12 13 65300
-1944.2885 -493.32693 3018
-1953.9807 -503.29807 3079
-1911.875 -500.02884 3059
-1936 -514.25 3146
-1981.4712 -534.68268 3271
18 13 65300
19 13 65300
20 13 65300
21 13 65300
22 13 65300
23 13 65300
-1327.8462 -403.09616 2466
25 13 65300
-1500.0577 -472.24039 2889
-1394.3077 -447.23077 2736
-1474.5 -482.04807 2949
-1554.0288 -518.00964 3169
-1585.0962 -538.93268 3297
-1543.0288 -535.33655 3275
-1506.4615 -533.53845 3264
-1480.9519 -535.66345 3277
-1466.6923 -542.03845 3316
-1420.5288 -536.64423 3283
-1419.8462 -548.5769 3356
-1365.6635 -539.91345 3303
-1310.0769 -530.26923 3244
-1293.4712 -536.31732 3281
-1267.3077 -538.60577 3295
-1248.75 -544.3269 3330
-1157.5385 -517.84613 3168
43 13 65300
44 13 65300
45 13 65300
46 13 65300
47 13 65300
48 13 65300
49 13 65300
50 13 65300
51 13 65300
-879.30768 -533.86536 3266
-824.27887 -518.99036 3175
-807.5 -527.98077 3230
-757.93268 -515.39423 3153
-722.0769 -511.47116 3129
-662.13464 -489.40384 2994
-541.96155 -418.78845 2562
-586.78845 -475.01923 2906
-571.34613 -485.64423 2971
-553.00964 -494.79807 3027
-542.4231 -512.28845 3134
-527.3269 -527.3269 3226
-512.76923 -544.81732 3333
-475.38461 -538.76923 3296
-457.69232 -555.76923 3400
-402.5 -526.34613 3220
-378.80768 -536.64423 3283
-335.92307 -519.15387 3176
-307.5 -522.75 3198
-283.75961 -535.99036 3279
-247.46153 -525.85577 3217
-218.41347 -530.43268 3245
-187.73077 -531.90387 3254
-154.85577 -526.50964 3221
-124.46154 -528.96155 3236
-93.028847 -527.16345 3225
-61.692307 -524.38464 3208
-30.39423 -516.7019 3161
0 -522.09613 3194
30.596153 -520.13464 3182
59.48077 -505.58655 3093
88.58654 -501.99039 3071
117.57692 -499.70193 3057
149.03847 -506.73077 3100
173.13461 -490.54807 3001
187.18269 -454.58655 2781
204.61539 -434.80768 2660
212.79808 -401.95193 2459
233.94231 -397.70193 2433
248.875 -384.625 2353
273.92307 -388.05768 2374
289 -377.92307 2312
308.53845 -374.65384 2292
335.33655 -380.04807 2325
359.69232 -382.17307 2338
388.22116 -388.22116 2375
420.40384 -397.04807 2429
471.34616 -421.73077 2580
498.65384 -423.85577 2593
589.81732 -477.47116 2921
102 13 65300
103 13 65300
104 13 65300
105 13 65300
106 13 65300
107 13 65300
108 13 65300
109 13 65300
110 13 65300
111 13 65300
112 13 65300
113 13 65300
114 13 65300
115 13 65300
116 13 65300
117 13 65300
118 13 65300
119 13 65300
1118.4615 -475.34616 2908
1153.5193 -478.28845 2926
1147.3269 -464.39423 2841
1182.5 -467.5 2860
1152.4615 -445.26923 2724
1188.1731 -448.86539 2746
1159.7307 -428.59616 2622
1149.2404 -415.68268 2543
1187.5385 -420.58655 2573
1208.9807 -419.44232 2566
1197.1154 -407.01923 2490
1367.6827 -455.89423 2789
1468.5 -480.08655 2937
1609.875 -516.375 3159
1724.3654 -542.85577 3321
1589.7115 -491.36539 3006
1683.2307 -510.98077 3126
1713.8365 -511.14423 3127
1734.9807 -508.52884 3111
1726.3173 -497.41345 3043
1783.8462 -505.42307 3092
1795.9807 -500.51923 3062
1809.3269 -496.10577 3035
1843.3557 -497.41345 3043
1874.4615 -497.90384 3046
1931.875 -505.25961 3091
1966.6731 -506.56732 3099
1984.2307 -503.46155 3080
1963.5 -490.875 3003
2027.5385 -499.53845 3056
2047.5 -497.25 3042
2071.2886 -495.94232 3034
2072.7693 -489.40384 2994
2087.5193 -486.13461 2974
2037.1346 -467.99039 2863
155 13 65300
156 13 65300
157 13 65300
158 13 65300
159 13 65300
-500 -100 650
-424.625 -86 559
-452.25 -92.769234 603
-456.81732 -94.92308 617
-449.42307 -94.615387 615
-625.24036 -133.38461 867
-1117.8269 -241.69231 1571
7 14 65300
8 14 65300
9 14 65300
10 14 65300
11 14 65300
12 14 65300
-1886.9519 -450.61539 2929
-1934.3077 -468.92307 3048
-1990 -489.84616 3184
-1937.8462 -484.46155 3149
-2014.7885 -511.69232 3326
18 14 65300
19 14 65300
20 14 65300
21 14 65300
22 14 65300
23 14 65300
24 14 65300
25 14 65300
-1470.9807 -435.84616 2833
-1559.4231 -470.76923 3060
-1668.5 -513.38464 3337
-1581.4904 -496.15384 3225
-1565.3846 -500.92307 3256
-1538.7885 -502.46155 3266
-1518.4615 -506.15384 3290
-1487.2788 -506.30768 3291
-1462.7115 -508.76923 3307
-1420.0962 -504.92307 3282
-1421.5385 -516.9231 3360
-1378.4807 -512.9231 3334
-1336.3269 -509.07693 3309
-1301.3557 -507.84616 3301
-1268.4615 -507.38461 3298
-1222.5 -501.53845 3260
-1187.5 -500 3250
43 14 65300
44 14 65300
45 14 65300
46 14 65300
47 14 65300
48 14 65300
49 14 65300
50 14 65300
51 14 65300
-887.11536 -506.92307 3295
-828.69232 -491.07693 3192
-798.5 -491.38461 3194
-763.46155 -488.61539 3176
-733.84613 -489.23077 3180
-670.09613 -466.15384 3030
-556.55768 -404.76923 2631
-584.97113 -445.69232 2897
-569.4231 -455.53845 2961
-556.11536 -468.30768 3044
-534.11536 -474.76923 3086
-515.23077 -484.92307 3152
-501.84616 -501.84616 3262
-475.09616 -506.76923 3294
-461.59616 -527.53845 3429
-403.875 -497.07693 3231
-379.26923 -505.69232 3287
-343.75 -500 3250
-309.32693 -494.92307 3217
-275.10577 -489.07693 3179
-246 -492 3198
-218.07692 -498.46155 3240
-187.44231 -499.84616 3249
-154.80769 -495.38461 3220
-123.73077 -494.92307 3217
-93.778847 -500.15384 3251
-61.53846 -492.30768 3200
-30.634615 -490.15384 3186
0 -486 3159
30.490385 -487.84616 3171
61.326923 -490.61539 3189
90.92308 -484.92307 3152
120.38461 -481.53845 3130
153.55769 -491.38461 3194
185.07692 -493.53845 3208
222.45192 -508.46155 3305
240.07692 -480.15384 3121
243.77884 -433.38461 2817
252.5 -404 2626
251.20192 -365.38461 2375
272.76923 -363.69232 2364
285.625 -351.53845 2285
316.21155 -361.38461 2349
330.86539 -352.92307 2294
357.38461 -357.38461 2323
395.08655 -371.84616 2417
456.92307 -406.15384 2640
526.7019 -443.53845 2883
100 14 65300
101 14 65300
102 14 65300
103 14 65300
104 14 65300
105 14 65300
106 14 65300
107 14 65300
108 14 65300
109 14 65300
110 14 65300
111 14 65300
112 14 65300
113 14 65300
114 14 65300
115 14 65300
116 14 65300
117 14 65300
118 14 65300
119 14 65300
1130.7693 -452.30768 2940
1143.6635 -446.30768 2901
1174.7885 -447.53845 2909
1172.5769 -436.30768 2836
1194.7693 -434.46155 2824
1182.9807 -420.61539 2734
1177.4231 -409.53845 2662
1185.3943 -403.53845 2623
1200.9231 -400.30768 2602
1186.3654 -387.38461 2518
1175 -376 2444
1405.9327 -441.07693 2867
1530.5 -470.92307 3061
1682.75 -508 3302
1690.6154 -500.92307 3256
1645.7693 -478.76923 3112
1694.5385 -484.15384 3147
1711.6443 -480.46155 3123
1729.9615 -477.23077 3102
1750.1443 -474.61539 3085
1790.1923 -477.38461 3103
1801.2596 -472.46155 3071
1858.2115 -479.53845 3117
1867.5865 -474.30768 3083
1873.8462 -468.46155 3045
1918.125 -472.15384 3069
1979.3654 -479.84616 3119
1937.2019 -462.61539 3007
1988.3462 -467.84616 3041
2030.8557 -470.92307 3061
2039.4231 -466.15384 3030
2062.4136 -464.76923 3021
2076.2307 -461.38461 2999
2079.7981 -455.84616 2963
2061.3269 -445.69232 2897
155 14 65300
156 14 65300
157 14 65300
158 14 65300
159 14 65300
-463.84616 -86.971153 603
-439.05768 -83.365387 578
-488.25 -93.894234 651
-404.99039 -78.894234 547
-450.88461 -88.990387 617
-553.84613 -110.76923 768
-1134.9038 -230.04808 1595
7 15 65300
8 15 65300
9 15 65300
10 15 65300
11 15 65300
12 15 65300
-1922.3846 -430.38461 2984
-1947.6346 -442.64423 3069
-1980.625 -457.06732 3169
-1927.3846 -451.73077 3132
-2016 -480 3328
18 15 65300
19 15 65300
20 15 65300
21 15 65300
22 15 65300
23 15 65300
24 15 65300
25 15 65300
26 15 65300
-1622.1057 -459.08655 3183
-1646.5 -474.95193 3293
-1596.2019 -469.47116 3255
-1584.1346 -475.24039 3295
-1549.625 -474.375 3289
-1514.3077 -473.22116 3281
-1491.7981 -476.10577 3301
-1475.9807 -481.29807 3337
-1429.1827 -476.39423 3303
-1405.8846 -479.27884 3323
-1368.5577 -477.40384 3310
-1354.0962 -483.60577 3353
-1304.1154 -477.11539 3308
-1264.6154 -474.23077 3288
-1207.875 -464.56732 3221
-1167.4038 -460.81732 3195
43 15 65300
44 15 65300
45 15 65300
46 15 65300
47 15 65300
48 15 65300
49 15 65300
50 15 65300
51 15 65300
-908.38464 -486.63461 3374
-814.6731 -452.59616 3138
-797.5 -460.09616 3190
-775.96155 -465.57693 3228
-738 -461.25 3198
-673.19232 -439.03845 3044
-563.75 -384.375 2665
-597.08655 -426.49039 2957
-574.23077 -430.67307 2986
-546.06732 -431.10577 2989
-535.3269 -446.10577 3093
-520.78845 -459.51923 3186
-507.07693 -475.38461 3296
-470.91345 -470.91345 3265
-449.07693 -481.15384 3336
-395.375 -456.20193 3163
-366.23077 -457.78845 3174
-338.99039 -462.25961 3205
-305.38461 -458.07693 3176
-283.75961 -472.93268 3279
-255.69231 -479.42307 3324
-221.98077 -475.67307 3298
-190.03847 -475.09616 3294
-155.91347 -467.74039 3243
-124.23077 -465.86539 3230
-92.42308 -462.11539 3204
-61.615383 -462.11539 3204
-30.60577 -459.08655 3183
0 -462.83655 3209
30.192308 -452.88461 3140
61.596153 -461.97116 3203
90.894234 -454.47116 3151
120.53846 -452.01923 3134
145.09616 -435.28845 3018
180.46153 -451.15384 3128
208.25 -446.25 3094
233.92308 -438.60577 3041
261.08655 -435.14423 3017
282.59616 -423.89423 2939
277.96155 -379.03845 2628
272.07693 -340.09616 2358
290.125 -334.75961 2321
308.26923 -330.28845 2290
324.375 -324.375 2249
354.15384 -332.01923 2302
408.81732 -360.72116 2501
506.07693 -421.73077 2924
552.09613 -435.86539 3022
100 15 65300
101 15 65300
102 15 65300
103 15 65300
104 15 65300
105 15 65300
106 15 65300
107 15 65300
108 15 65300
109 15 65300
110 15 65300
111 15 65300
112 15 65300
113 15 65300
114 15 65300
115 15 65300
116 15 65300
117 15 65300
118 15 65300
119 15 65300
1131.9231 -424.47116 2943
1161.4038 -424.90384 2946
1135.2115 -405.43268 2811
1192.4231 -415.96155 2884
1199.4231 -408.89423 2835
1164.8077 -388.26923 2692
1221.2115 -398.22116 2761
1144.2693 -365.19232 2532
1197.2307 -374.13461 2594
1167.0481 -357.25961 2477
1221.1538 -366.34616 2540
1409.3654 -414.51923 2874
1534.5 -442.64423 3069
1573.1827 -445.24039 3087
1600.7885 -444.66345 3083
1637.8365 -446.68268 3097
1687 -451.875 3133
1717.125 -451.875 3133
1738.8846 -449.71155 3118
1759.7885 -447.40384 3102
1760.7693 -440.19232 3052
1805.9519 -444.08655 3079
1833.1731 -443.50961 3075
1881.5193 -447.98077 3106
1902.7693 -445.96155 3092
1924.375 -444.08655 3079
1957.1538 -444.80768 3084
1980.3654 -443.36539 3074
2018.4231 -445.24039 3087
2028.2019 -440.91345 3057
2050.8655 -439.47116 3047
2054.2212 -433.99039 3009
2077.6155 -432.83655 3001
2070.6731 -425.48077 2950
2072.7114 -420.14423 2913
155 15 65300
156 15 65300
157 15 65300
158 15 65300
159 15 65300
-470 -82.25 611
-443.61539 -78.615387 584
-480.75 -86.28846 641
-459.03845 -83.46154 620
-465.5 -85.75 637
-537.98077 -100.42308 746
-980.5 -185.5 1378
7 16 65300
8 16 65300
9 16 65300
10 16 65300
11 16 65300
12 16 65300
-1926.25 -402.5 2990
-1954.6154 -414.61539 3080
-1985.625 -427.67307 3177
-1916.3077 -419.19232 3114
-1980.8654 -440.19232 3270
18 16 65300
19 16 65300
20 16 65300
21 16 65300
22 16 65300
23 16 65300
24 16 65300
25 16 65300
26 16 65300
-1601.7212 -423.09616 3143
-1636 -440.46155 3272
-1618.7596 -444.36539 3301
-1574.5193 -440.86539 3275
-1541.1443 -440.32693 3271
-1505.5385 -439.11539 3262
-1490.8943 -444.09616 3299
-1449 -441 3276
-1431.7788 -445.44232 3309
-1384.7307 -440.59616 3273
-1383.0288 -450.28845 3345
-1325.8269 -441.94232 3283
-1292.6827 -441.40384 3279
-1266.9231 -443.42307 3294
-1220.625 -438.17307 3255
-1192.9807 -439.51923 3265
-1220.6443 -461.86539 3431
44 16 65300
45 16 65300
46 16 65300
47 16 65300
48 16 65300
49 16 65300
50 16 65300
51 16 65300
-902.73077 -451.36539 3353
-817.00964 -423.63461 3147
-803 -432.38461 3212
-771.63464 -432.11539 3210
-742.38464 -433.05768 3217
-653.50964 -397.78845 2955
-544.71155 -346.63461 2575
-594.46155 -396.30768 2944
-568.26923 -397.78845 2955
-557.21155 -410.57693 3050
-527.71155 -410.44232 3049
-526.50964 -433.59616 3221
-513.84613 -449.61539 3340
-477.40384 -445.57693 3310
-448 -448 3328
-393.375 -423.63461 3147
-371.65384 -433.59616 3221
-342.375 -435.75 3237
-311.53845 -436.15384 3240
-280.38461 -436.15384 3240
-250.46153 -438.30768 3256
-218.95192 -437.90384 3253
-186.28847 -434.67307 3229
-154.66347 -433.05768 3217
-125.26923 -438.44232 3257
-94.21154 -439.65384 3266
-61.76923 -432.38461 3212
-31.23077 -437.23077 3248
0 -433.19232 3218
30.586538 -428.21155 3181
61.615383 -431.30768 3204
92.134613 -429.96155 3194
120.69231 -422.42307 3138
155.19231 -434.53845 3228
175.09616 -408.55768 3035
212.75961 -425.51923 3161
232.23077 -406.40384 3019
270.17307 -420.26923 3122
286.82693 -401.55768 2983
308.63461 -392.80768 2918
283.5 -330.75 2457
278.625 -300.05768 2229
311.90384 -311.90384 2317
330.28845 -308.26923 2290
354 -309.75 2301
402.11539 -331.15384 2460
98 16 65300
99 16 65300
100 16 65300
101 16 65300
