# .PCD v0.7 - Point Cloud Data file format
VERSION 0.7
FIELDS x y z
SIZE 4 4 4
TYPE F F F
COUNT 1 1 1
WIDTH 2049
HEIGHT 1
VIEWPOINT 0 0 0 1 0 0 0
POINTS 2049
DATA ascii
-2131.7405 292.01923 3037
-2138.5386 297.01923 3089
-2073.3364 292.01923 3037
-2061.6345 294.51923 3063
-2057.3943 298.17307 3101
-2011.2307 295.76923 3076
-1945.5769 290.38461 3020
-1994.5962 302.21155 3143
-1934.375 297.59616 3095
-1969.2307 307.69232 3200
-1977.2307 313.84616 3264
-1953.5962 315.09616 3277
-1945.5481 318.94232 3317
-1934.4231 322.40384 3353
-1904.4519 322.78845 3357
-1886.6731 325.28845 3383
-1866.75 327.5 3406
-1822.1538 325.38461 3384
-1805.4807 328.26923 3414
-1763.3077 326.53845 3396
-1726.0673 325.67307 3387
-1710.5 328.94232 3421
-1672.2115 327.88461 3410
-1652.4038 330.48077 3437
-1620.7693 330.76923 3440
-1556.3077 324.23077 3372
-1527.9519 325.09616 3381
-1485.2693 322.88461 3358
-1467.6923 326.15384 3392
-1426.1923 324.13461 3371
-1395.4327 324.51923 3375
-1307.6538 311.34616 3238
-1203.1923 293.46155 3052
-1166.5385 291.63461 3033
-1162.5 298.07693 3100
-1102.3654 290.09616 3017
-1068.0193 288.65384 3002
-1058.8846 294.13461 3059
-1018.3654 290.96155 3026
-988.28845 290.67307 3023
-995.39423 301.63461 3137
-725.53845 226.73077 2358
-458.44232 147.88461 1538
-459.51923 153.17308 1593
-465.11539 160.38461 1668
52 40 65300
53 40 65300
54 40 65300
55 40 65300
56 40 65300
57 40 65300
58 40 65300
59 40 65300
60 40 65300
-499.11539 262.69232 2732
-523.90387 291.05768 3027
-483.68268 284.51923 2959
-466.92307 291.82693 3035
-449.56732 299.71155 3117
-447.73077 319.80768 3326
-415.625 319.71155 3325
-385.84616 321.53845 3344
-348.19232 316.53845 3292
-319.80768 319.80768 3326
-285.23077 316.92307 3296
-251.84616 314.80768 3274
-224.94231 321.34616 3342
-187.09616 311.82693 3243
-158.50961 317.01923 3297
-126.5 316.25 3289
-96.54808 321.82693 3347
-63.442307 317.21155 3299
-31.913462 319.13461 3319
0 313.55768 3261
31.384615 313.84616 3264
62.326923 311.63461 3241
94.932693 316.44232 3291
125.69231 314.23077 3268
156.77884 313.55768 3261
185.88461 309.80768 3222
216.39423 309.13461 3215
249.69231 312.11539 3246
279.95193 311.05768 3235
310.67307 310.67307 3231
341 310 3224
361.38461 301.15384 3132
372 286.15384 2976
393.88461 281.34616 2926
421.15384 280.76923 2920
450 281.25 2925
502.64423 295.67307 3075
509.88461 283.26923 2946
99 40 65300
100 40 65300
101 40 65300
102 40 65300
103 40 65300
104 40 65300
105 40 65300
106 40 65300
107 40 65300
893.30768 319.03845 3318
800.28845 275.96155 2870
835.09613 278.36539 2895
863.52887 278.55768 2897
890.46155 278.26923 2894
917.33655 277.98077 2891
940.88464 276.73077 2878
977.30768 279.23077 2904
1001.7692 278.26923 2894
1023.9039 276.73077 2878
1043.5385 274.61539 2856
1077.375 276.25 2873
1090.3846 272.59616 2835
1125.9231 274.61539 2856
1134 270 2808
1199.0385 278.84616 2900
1218.4615 276.92307 2880
1241.8269 275.96155 2870
1297.7307 282.11539 2934
1365.2596 290.48077 3021
1289.0769 268.55768 2793
665.74036 135.86539 1413
554.3269 110.86539 1153
474.20193 92.980766 967
523.5 100.67308 1047
500.95193 94.519234 983
507.28845 93.942307 977
524.08655 95.28846 991
539 96.25 1001
546.43268 95.865387 997
550.44232 94.903847 987
542.34613 91.92308 956
532.5 88.75 923
571.875 93.75 975
543.69232 87.692307 912
556.7019 88.365387 919
547.0769 85.480766 889
580.625 89.32692 929
588.28845 89.134613 927
567.56732 84.71154 881
576.69232 84.807693 882
596.4519 86.442307 899
601.05768 85.865387 893
633.53845 89.230766 928
609.9231 84.71154 881
624.00964 85.480766 889
618.3269 83.557693 869
645.43268 86.057693 895
641.61536 84.42308 878
646.35577 83.942307 873
624.75 80.096153 833
668.46155 84.615387 880
0 41 65300
1 41 65300
2 41 65300
3 41 65300
4 41 65300
5 41 65300
-2177.3076 323.65384 3060
-2135.25 321.75 3042
-2118.4614 323.65384 3060
-2065.8269 320.05768 3026
-2071.0576 325.45193 3077
-2016.9231 321.53845 3040
-2023.6538 327.35577 3095
-1981.6538 325.34616 3076
-1993.3269 332.22116 3141
-1956.25 331.05768 3130
-1955.0769 336.02884 3177
-1966.9327 343.43268 3247
-1967.9038 349.14423 3301
-1933.8173 348.72116 3297
-1914.2307 350.94232 3318
-1884.5962 351.36539 3322
-1874.9615 355.59616 3362
-1827.2885 352.63461 3334
-1823.2307 358.13461 3386
-1793.3173 358.66345 3391
-1759.6731 358.45193 3389
-1742.375 361.625 3419
-1696.5 358.875 3393
-1657.0096 357.39423 3379
-1646.1538 362.15384 3424
-1578.3654 354.32693 3350
-1556.7693 356.75961 3373
-1516.2019 354.85577 3355
-1485.7115 355.27884 3359
-1459.4712 356.75961 3373
-1411.8077 352.95193 3337
-1375.5865 351.89423 3327
-1300.3846 340.57693 3220
-1203.1923 322.80768 3052
-1174.6154 323.01923 3054
-1141.125 321.85577 3043
-1109.6731 321.22116 3037
-1073 319 3016
-1057.5 323.125 3055
-1023.4135 321.64423 3041
-982.40387 317.83655 3005
-950.33655 316.77884 2995
-860.9231 295.94232 2798
49 41 65300
50 41 65300
51 41 65300
52 41 65300
53 41 65300
54 41 65300
55 41 65300
56 41 65300
57 41 65300
58 41 65300
59 41 65300
60 41 65300
-534.55768 309.48077 2926
-520.78845 318.25961 3009
-483.84616 313.07693 2960
-454 312.125 2951
-441.49039 323.75961 3061
-446.25 350.625 3315
-412.25 348.82693 3298
-388.03845 355.70193 3363
-347.98077 347.98077 3290
-314.90384 346.39423 3275
-286.875 350.625 3315
-252.07692 346.60577 3277
-222.65384 349.88461 3308
-192.11539 352.21155 3330
-156.34616 343.96155 3252
-125.15385 344.17307 3254
-95.25 349.25 3302
-62.903847 345.97116 3271
-31.51923 346.71155 3278
0 348.50961 3295
31.740385 349.14423 3301
62.673077 344.70193 3259
93.778847 343.85577 3251
126.07692 346.71155 3278
156.29808 343.85577 3251
188.82692 346.18268 3273
218.07692 342.69232 3240
253.07692 347.98077 3290
283.06732 345.97116 3271
310.76923 341.84616 3232
338.99039 338.99039 3205
361.96155 331.79807 3137
370.125 313.18268 2961
398.32693 312.97116 2959
428.79807 314.45193 2973
457.38461 314.45193 2973
485.64423 314.24039 2971
486.34616 297.21155 2810
99 41 65300
100 41 65300
101 41 65300
102 41 65300
103 41 65300
104 41 65300
105 41 65300
106 41 65300
754.18268 307.25961 2905
784 308 2912
805.86536 305.67307 2890
848.36536 311.06732 2941
878.43268 311.70193 2947
888.9231 305.56732 2889
928.44232 309.48077 2926
954.94232 308.95193 2921
961.15387 302.07693 2856
1002.4615 306.30768 2896
1035.2885 307.78845 2910
1050.1154 303.98077 2874
1074.375 303.02884 2865
1102.6923 303.24039 2867
1140.1154 305.88461 2892
1162.2693 304.40384 2878
1184.1538 302.92307 2864
1218.0385 304.50961 2879
1272.1154 310.96155 2940
1347.7115 322.27884 3047
1385.1443 324.18268 3065
1374 314.875 2977
1271.1731 285.36539 2698
783.65387 172.40384 1630
497.25 107.25 1014
562.5 118.99039 1125
502.99039 104.39423 987
557.65387 113.59615 1074
520.38464 104.07692 984
535.23077 105.13461 994
536.56732 103.54808 979
568.84613 107.88461 1020
532.13464 99.21154 938
559.61536 102.59615 970
570.7019 102.91346 973
559.19232 99.21154 938
557.30768 97.307693 920
570.46155 98.04808 927
583.125 98.682693 933
574.3269 95.721153 905
583.02887 95.721153 905
611.34613 98.894234 935
594.46155 94.769234 896
609.13464 95.721153 905
613.05768 94.980766 898
615.46155 94.028847 889
643.66345 96.990387 917
636.8269 94.66346 895
636.05768 93.28846 882
644.53845 93.28846 882
644.875 92.125 871
660.75 93.182693 881
660.10577 91.91346 869
0 42 65300
1 42 65300
2 42 65300
3 42 65300
4 42 65300
5 42 65300
6 42 65300
-2182.9807 358.84616 3110
-2162.0769 360.34616 3123
-2090.4038 353.30768 3062
-2063.6538 353.76923 3066
-2007.6346 349.15384 3026
-1996.1923 352.26923 3053
-1946.8654 348.69232 3022
-1927.3269 350.42307 3037
-1939.375 358.03845 3103
-1971.0769 369.57693 3203
-1959.6635 373.26923 3235
-1937.5 375 3250
-1943.2019 382.26923 3313
-1938.4615 387.69232 3360
-1891.9712 384.80768 3335
-1887.2307 390.46155 3384
-1821.8077 383.53845 3324
-1800.0769 385.73077 3343
-1780.0962 388.38461 3366
-1746.1731 388.03845 3363
-1699.0577 384.69232 3334
-1676.5 386.88461 3353
-1664.3654 391.61539 3394
-1618.2693 388.38461 3366
-1589.6731 389.30768 3374
-1554.4615 388.61539 3368
-1528.8557 390.34616 3383
-1479.0769 385.84616 3344
-1455.5769 388.15384 3364
-1438.0385 392.19232 3399
-1383.0288 385.96155 3345
-1314.1154 375.46155 3254
-1217.3846 356.30768 3088
-1151.5385 345.46155 2994
-1146.75 352.84616 3058
-1118.8077 353.30768 3062
-1098.9712 356.42307 3089
-1060.6154 353.53845 3064
-1020.0481 349.73077 3031
-986.3269 348.11539 3017
-972.23077 353.53845 3064
-923.69232 346.38461 3002
49 42 65300
50 42 65300
51 42 65300
52 42 65300
53 42 65300
54 42 65300
55 42 65300
56 42 65300
57 42 65300
58 42 65300
59 42 65300
60 42 65300
-546.7981 345.34616 2993
-529.96155 353.30768 3062
-492.18268 347.42307 3011
-467.53845 350.65384 3039
-438.02884 350.42307 3037
-453.51923 388.73077 3369
-423.625 391.03845 3389
-384.57693 384.57693 3333
-353.58655 385.73077 3343
-317.78845 381.34616 3305
-287.04807 382.73077 3317
-254 381 3302
-223.125 382.5 3315
-192.28847 384.57693 3333
-159.08653 381.80768 3309
-128.88461 386.65384 3351
-95.740387 382.96155 3319
-62.942307 377.65384 3273
-31.125 373.5 3237
0 383.30768 3322
31.701923 380.42307 3297
63.442307 380.65384 3299
94.932693 379.73077 3291
124.84615 374.53845 3246
157.25961 377.42307 3271
190.09616 380.19232 3295
224.47116 384.80768 3335
252.23077 378.34616 3279
279.69232 372.92307 3232
311.34616 373.61539 3238
338.77884 369.57693 3203
357.34616 357.34616 3097
371.625 343.03845 2973
396.03845 339.46155 2942
422.59616 338.07693 2930
454.30768 340.73077 2953
480.08655 338.88461 2937
509.71155 339.80768 2945
617.68268 390.11539 3381
100 42 65300
101 42 65300
102 42 65300
103 42 65300
104 42 65300
780.76923 374.76923 3248
812.25 374.88461 3249
754.7019 335.42307 2907
777.80768 333.34616 2889
801.96155 331.84616 2876
831.9231 332.76923 2884
858.75964 332.42307 2881
896 336 2912
910.03845 330.92307 2868
940.88464 332.07693 2878
972.25964 333.34616 2889
1009.7308 336.57693 2917
1022.125 331.5 2873
1036.9615 327.46155 2838
1084.125 333.57693 2891
1095.3846 328.61539 2848
1143.2693 334.61539 2900
1162.6731 332.19232 2879
1208.5481 337.26923 2923
1206.6154 329.07693 2852
1252.2115 333.92307 2894
1339.3077 349.38461 3028
1385.5962 353.76923 3066
1420.6154 355.15384 3078
1485.5481 363.80768 3153
1055.7693 253.38461 2196
434.48077 102.23077 886
505 116.53846 1010
499.42307 113.07692 980
565.44232 125.65385 1089
516.15387 112.61539 976
497.53845 106.61539 924
533.27887 112.26923 973
515.30768 106.61539 924
553.125 112.5 975
556.15387 111.23077 964
567.76923 111.69231 968
558.59613 108.11539 937
557.91345 106.26923 921
582.15387 109.15385 946
578.75 106.84615 926
620.65387 112.84615 978
593.33655 106.26923 921
596.96155 105.34615 913
610.38464 106.15385 920
597.69232 102.46154 888
626.02887 105.80769 917
639.69232 106.61539 924
625.41345 102.80769 891
638.25 103.5 897
664.90387 106.38461 922
643.80768 101.65385 881
655.24036 102.11539 885
648.75 99.807693 865
676.05768 102.69231 890
0 43 65300
1 43 65300
2 43 65300
3 43 65300
4 43 65300
5 43 65300
6 43 65300
-2110.6826 375.875 3007
-2180.7693 393.75 3150
-2087.6731 382.25 3058
-2069.7114 384.375 3075
-2040.8077 384.5 3076
-2022.3462 386.625 3093
-1968.7693 382 3056
-1954.6154 385 3080
-1943.75 388.75 3110
-1952.6154 396.625 3173
-1969.9615 406.5 3252
-1964.3269 411.875 3295
-1932.6443 411.875 3295
-1914.2307 414.75 3318
-1907.2885 420.25 3362
-1911.2115 428.375 3427
-1902.9231 434 3472
-1857.1538 431.125 3449
-1844.6154 436 3488
-1802.7693 434 3472
-1771.4231 434.5 3476
-1715 428.75 3430
-1683.9807 429.25 3434
-1647.1154 428.25 3426
-1609.9327 427.125 3417
-1583.0769 428.75 3430
-1551.4519 429.125 3433
-1502.5193 424.625 3397
-1473.75 425.75 3406
-1448.6154 428 3424
-1388.4038 419.75 3358
-1316.1346 407.375 3259
-1211.8654 384.25 3074
-1177.3077 382.625 3061
-1129.125 376.375 3011
-1119.1731 382.875 3063
-1063.75 373.75 2990
-1057.5 381.875 3055
-1030.1443 382.625 3061
-972.59613 371.875 2975
-961.125 378.625 3029
-922.76923 374.875 2999
-892.74036 374.375 2995
-863.65387 374.25 2994
51 43 65300
52 43 65300
53 43 65300
54 43 65300
55 43 65300
56 43 65300
57 43 65300
58 43 65300
-623.94232 386.25 3090
-608.46155 395.5 3164
-536.38464 367 2936
-515.0769 372 2976
-493.65384 377.5 3020
-455.69232 370.25 2962
-451.73077 391.5 3132
-451.09616 418.875 3351
-407.625 407.625 3261
-381.69232 413.5 3308
-346.71155 409.75 3278
-316.82693 411.875 3295
-282.02884 407.375 3259
-248.53847 403.875 3231
-222.85577 413.875 3311
-188.07692 407.5 3260
-156.73077 407.5 3260
-125.53846 408 3264
-94.21154 408.25 3266
-63 409.5 3276
-31.692308 412 3296
0 403.125 3225
31.048077 403.625 3229
62.596153 406.875 3255
94.67308 410.25 3282
125.07692 406.5 3252
156.15384 406 3248
188.07692 407.5 3260
217.60577 404.125 3233
247.92308 402.875 3223
276.31732 399.125 3193
308.46155 401 3208
335.92307 397 3176
360.57693 390.625 3125
367 367 2936
397.65384 369.25 2954
421.875 365.625 2925
455.23077 369.875 2959
479.59616 366.75 2934
506.25 365.625 2925
534.9231 366 2928
545.19232 354.375 2835
574.875 355.875 2847
601.8269 355.625 2845
622.5481 351.875 2815
658.38464 356.625 2853
674.03845 350.5 2804
714.25 357.125 2857
751.06732 361.625 2893
774.03845 359.375 2875
804.47113 360.625 2885
838.26923 363.25 2906
875.75 367.25 2938
898.15387 364.875 2919
907.5 357.5 2860
944.80768 361.25 2890
957.4519 355.625 2845
1002.8077 362.125 2897
1024.9712 360.125 2881
1044.6346 357.375 2859
1084.875 361.625 2893
1096.1538 356.25 2850
1144.0577 362.75 2902
1173.1731 363.125 2905
1238.7307 374.5 2996
1237.0769 365.5 2924
1269.9519 366.875 2935
1345.9423 380.375 3043
1383.7885 382.75 3062
1432.6154 388 3104
1454.9231 386 3088
1403.8462 365 2920
845.91345 215.625 1725
714 178.5 1428
586.05768 143.75 1150
616.3269 148.375 1187
577.5 136.5 1092
589.61536 136.875 1095
589.73077 134.5 1076
554.34613 124.25 994
559.36536 123.25 986
567.11536 122.875 983
586.53845 125 1000
587.80768 123.25 986
573.66345 118.375 947
583.38464 118.5 948
598.75 119.75 958
586.38464 115.5 924
595.91345 115.625 925
587.80768 112.375 899
610.38464 115 920
607.11536 112.75 902
615.10577 112.625 901
624.46155 112.75 902
618.39423 110.125 881
651.05768 114.375 915
663.46155 115 920
653.30768 111.75 894
653.75964 110.375 883
648.75 108.125 865
673.77887 110.875 887
0 44 65300
1 44 65300
2 44 65300
3 44 65300
4 44 65300
5 44 65300
6 44 65300
7 44 65300
-2161.3845 420.26923 3122
-2123.8557 418.78845 3111
-2116.1538 423.23077 3144
-2052.75 416.5 3094
-2006.6538 413.13461 3069
-1956.5288 408.82693 3037
-1999.6731 424.17307 3151
-1940.625 417.98077 3105
-1937.8462 423.90384 3149
-1913.625 425.25 3159
-1921.4038 433.86539 3223
-1900.9712 436.28845 3241
-1885.3846 439.92307 3268
-1877.2212 445.44232 3309
-1858.2307 448.53845 3332
-1843.1827 452.71155 3363
-1802.7693 450.69232 3348
-1823.4615 464.15384 3448
-1752.4038 454.32693 3375
-1709.7596 451.63461 3355
-1686.5 454.05768 3373
-1665.8365 457.28845 3397
-1641.8269 459.71155 3415
-1562.3462 446.38461 3316
-1566.9231 457.01923 3395
-1504.9038 448.26923 3330
-1501.1923 456.88461 3394
-1470.7212 457.55768 3399
-1408.8462 448.26923 3330
-1392.125 453.25 3367
-1339.1538 446.38461 3316
-1199.6443 409.63461 3043
-1166.5385 408.28845 3033
-1147.5 411.92307 3060
-1108.5769 408.42307 3034
-1093.6346 413.80768 3074
-1062.6923 413.26923 3070
-1015.6731 406.26923 3018
-989.59613 407.48077 3027
-965.25 409.5 3042
-931.0769 407.34616 3026
-907.94232 410.03845 3046
-893.65387 417.03845 3098
-974.00964 470.21155 3493
52 44 65300
53 44 65300
54 44 65300
55 44 65300
-811.38464 473.30768 3516
-750.15387 456.61539 3392
-704.4231 448.26923 3330
-607.58655 405.05768 3009
-587.11536 410.98077 3053
-546.06732 402.36539 2989
-519.05768 403.71155 2999
-485.15384 399.53845 2968
-467.53845 409.09616 3039
-456.63461 426.19232 3166
-438.57693 438.57693 3258
-406.875 438.17307 3255
-373.61539 435.88461 3238
-347.66345 442.48077 3287
-313.94232 439.51923 3265
-285.31732 443.82693 3297
-255.46153 447.05768 3321
-221.17308 442.34616 3286
-189.69231 442.61539 3288
-158.41347 443.55768 3295
-124.80769 436.82693 3245
-93.28846 435.34616 3234
-63.942307 447.59616 3325
-31.35577 438.98077 3261
0 439.38461 3264
31.259615 437.63461 3251
63.096153 441.67307 3281
93.28846 435.34616 3234
126.11539 441.40384 3279
157.5 441 3276
188.13461 438.98077 3261
217.94231 435.88461 3238
251 439.25 3263
280.81732 436.82693 3245
315.48077 441.67307 3281
340.78845 433.73077 3222
356.88461 416.36539 3093
374.875 403.71155 2999
396.98077 396.98077 2949
432.11539 403.30768 2996
451.69232 395.23077 2936
481.23077 396.30768 2944
504.34616 392.26923 2914
536.75 395.5 2938
562.30768 393.61539 2924
591.02887 394.01923 2927
619.38464 394.15384 2928
642.6731 391.19232 2906
671.30768 391.59616 2909
700.24036 392.13461 2913
728.5 392.26923 2914
747.43268 387.55768 2879
779.4231 389.71155 2895
802.24036 387.28845 2877
848.0769 395.76923 2940
850.41345 384.05768 2853
881.53845 385.67307 2865
926.22113 392.94232 2919
952 392 2912
974.27887 389.71155 2895
987.5769 384.05768 2853
1042.7596 394.55768 2931
1053.0385 387.96155 2882
1092.375 392.13461 2913
1103.8462 386.34616 2870
1122.375 383.25 2847
1148.9423 382.98077 2845
1230.875 400.75 2977
1281.0769 407.61539 3028
1276.0096 396.98077 2949
1363.6346 415.01923 3083
1416.3269 421.88461 3134
1418.7693 413.80768 3074
1449.2693 414.07693 3076
1479.3269 414.21155 3077
1474.5865 404.78845 3007
868.5 233.82692 1737
532.03845 140.53847 1044
532.21155 137.98077 1025
520.38464 132.46153 984
554.0769 138.51923 1029
537.11536 131.92308 980
572.75 138.25 1027
556.52887 132.05769 981
567.11536 132.32692 983
566.59613 130.03847 966
589 133 988
590.01923 131.11539 974
646.15387 141.34616 1050
598.75 128.96153 958
620.01923 131.51923 977
606.86536 126.80769 942
629.65387 129.63461 963
606.40387 123.03846 914
595 119 884
604.18268 119.13461 885
632.0769 122.90385 913
630.3269 120.88461 898
626.15387 118.46154 880
657.69232 122.76923 912
636.5 117.25 871
664.86536 120.88461 898
639 114.69231 852
678.33655 120.21154 893
0 45 65300
1 45 65300
2 45 65300
3 45 65300
4 45 65300
5 45 65300
6 45 65300
-2349.3364 482.74039 3347
-2338.6155 487.21155 3378
-2259.0288 477.25961 3309
-2253.4614 482.88461 3348
-2223.2595 483.31732 3351
-2183.1924 481.58655 3339
-2154.3076 482.30768 3344
-2122.1538 482.30768 3344
-2082.5 480.57693 3332
-2054.1538 481.44232 3338
-2020.2404 481.00961 3335
-2016.1923 487.78845 3382
-1933.8173 475.52884 3297
-1924.6154 481.15384 3336
-1884.0288 478.99039 3321
-1870.5 483.75 3354
-1829.4807 481.44232 3338
-1788.7693 479.13461 3322
-1753.125 478.125 3315
-1743.0577 484.18268 3357
-1652.6827 467.74039 3243
-1661.5 479.27884 3323
-1621.7019 476.97116 3307
-1588.4615 476.53845 3304
-1561.875 478.125 3315
-1510.1538 471.92307 3272
-1496.3173 477.54807 3311
-1469.7885 479.27884 3323
-1436.5385 478.84616 3320
-1419.4231 483.89423 3355
-1364.4231 475.96155 3300
-1336.7307 477.40384 3310
-1202.4038 439.90384 3050
-1168.4615 438.17307 3038
-1138.875 438.02884 3037
-1106.75 436.875 3029
-1090.7885 442.21155 3066
-1061.3077 442.21155 3066
-1014.6635 434.85577 3015
-1003.9808 442.93268 3071
-973.81732 442.64423 3069
-945.23077 443.07693 3072
-915.99036 443.22116 3073
-867.69232 433.84616 3008
-832.35577 430.52884 2985
-781.30768 418.55768 2902
-753.9231 418.84616 2904
-725.5 418.55768 2902
-694.47113 416.68268 2889
-683.0769 426.92307 2960
-642.89423 419.27884 2907
-641.38464 437.30768 3032
-608.39423 434.56732 3013
-584.80768 438.60577 3041
-545.88464 430.96155 2988
-521.8269 434.85577 3015
-489.40384 431.82693 2994
-462 433.125 3003
-455.04807 455.04807 3155
-450.01923 482.16345 3343
-416.625 480.72116 3333
-388.03845 485.04807 3363
-355.27884 484.47116 3359
-324.32693 486.49039 3373
-290.59616 484.32693 3358
-256.69232 481.29807 3337
-225.34616 482.88461 3348
-193.03847 482.59616 3346
-157.64423 472.93268 3279
-128.53847 482.01923 3342
-94.903847 474.51923 3290
-62.73077 470.48077 3262
-31.067308 466.00961 3231
0 473.65384 3284
31.403847 471.05768 3266
62.115383 465.86539 3230
93.46154 467.30768 3240
126.23077 473.36539 3282
155.38461 466.15384 3232
187.26923 468.17307 3246
218.07692 467.30768 3240
247.92308 464.85577 3223
279.17307 465.28845 3226
312.40384 468.60577 3249
336.02884 458.22116 3177
350.07693 437.59616 3034
373.625 431.10577 2989
401.42307 430.09616 2982
424.03845 424.03845 2940
453.69232 425.33655 2949
481.88461 425.19232 2948
507.63461 423.02884 2933
536.75 423.75 2938
571.15387 428.36539 2970
594.05768 424.32693 2942
614.94232 419.27884 2907
644 420 2912
681.23077 425.76923 2952
702.88464 421.73077 2924
729.75 421.00961 2919
749.25 416.25 2886
774.30768 414.80768 2876
810.0481 418.99039 2905
837.98077 418.99039 2905
857.26923 414.80768 2876
898.76923 421.29807 2921
926.53845 421.15384 2920
935.98077 412.93268 2863
977.64423 418.99039 2905
992.4231 413.50961 2867
1009.6731 409.32693 2838
1037.6923 409.61539 2840
1086.375 417.83655 2897
1103.8462 413.94232 2870
1134.9904 415.24039 2879
1173.1731 418.99039 2905
1178.3654 411.05768 2850
1238.7693 422.30768 2928
1333.125 444.375 3081
1373.8077 447.98077 3106
1399.6057 446.68268 3097
1427.0769 445.96155 3092
1451.625 444.375 3081
1470.1923 441.05768 3058
1488.8077 437.88461 3036
1487 428.94232 2974
1413.1635 399.95193 2773
1165.6731 323.79807 2245
824.47113 224.85577 1559
699.46155 187.35577 1299
576.02887 151.58653 1051
641.90387 166.00961 1151
608.72113 154.75961 1073
621.34613 155.33653 1077
587.125 144.375 1001
634.90387 153.60577 1065
573.66345 136.58653 947
585.84613 137.30769 952
555 128.07692 888
585.11536 132.98077 922
592.0481 132.54808 919
577.34613 127.35577 883
590.48077 128.36539 890
609.80768 130.67308 906
613.05768 129.51923 898
630 131.25 910
645.06732 132.54808 919
641.80768 130.09616 902
646.875 129.375 897
651.84613 128.65384 892
655.24036 127.64423 885
633.75 121.875 845
679.85577 129.08653 895
0 46 65300
1 46 65300
2 46 65300
3 46 65300
4 46 65300
5 46 65300
-2562.9614 554.15387 3602
-2463.0481 539.84613 3509
-2486.7693 552.61536 3592
-2416.7307 544.61536 3540
-2344.3269 535.84613 3483
-2284.9614 529.84613 3444
-2296.3076 540.30768 3512
-2209.0674 527.53845 3429
-2226.2307 539.69232 3508
-2185.625 538 3497
-2133.5386 533.38464 3467
-2137.1538 542.76923 3528
-2088.3269 538.9231 3503
-2041.1538 535.38464 3480
-1996.1538 532.30768 3460
-1979.9038 536.9231 3490
-1961.9615 541.23077 3518
-1889.7693 530.46155 3448
-1857.1538 530.61536 3449
-1826.6346 531.38464 3454
-1800.1731 533.38464 3467
-1723.5193 520.30768 3382
-1701 523.38464 3402
-1658.9712 520.46155 3383
-1634.6154 523.0769 3400
-1603.3365 523.53845 3403
-1551.6923 517.23077 3362
-1518.0096 516.76923 3359
-1498.9807 521.38464 3389
-1446.0577 514.15387 3342
-1416.4615 515.0769 3348
-1368.1443 509.07693 3309
-1311.6923 499.69232 3248
-1233.1538 481.23077 3128
-1207.6923 483.07693 3140
-1167.75 479.07693 3114
-1126.8462 474.46155 3084
-1092.2115 472.30768 3070
-1060.2693 471.23077 3063
-1039.2307 475.07693 3088
-1002.0192 471.53845 3065
-954.77887 462.92307 3009
-939.38464 469.69232 3053
-899.89423 464.46155 3019
-881.53845 470.15384 3056
-828.1731 456.92307 2970
-816.5769 466.61539 3033
-790.26923 468.30768 3044
-759.5 467.38461 3038
-729.08655 466.61539 3033
-702.69232 468.46155 3045
-660.58655 459.53845 2987
-638.63464 464.46155 3019
-608.59613 463.69232 3014
-582.30768 465.84616 3028
-555.93268 468.15384 3043
-528.40387 469.69232 3053
-487.60577 458.92307 2983
-469.84616 469.84616 3054
-452.30768 482.46155 3136
-447.73077 511.69232 3326
-420.625 517.69232 3365
-380.53845 507.38461 3298
-345.23077 502.15384 3264
-322.78845 516.46155 3357
-284.625 506 3289
-256.61539 513.23077 3336
-226.15384 516.9231 3360
-191.13461 509.69232 3313
-158.31731 506.61539 3293
-128.11539 512.46155 3331
-95.855766 511.23077 3323
-64.269234 514.15387 3342
-31.634615 506.15384 3290
0 498.76923 3242
31.163462 498.61539 3241
63.26923 506.15384 3290
93.403847 498.15384 3238
124.11539 496.46155 3227
154.08653 493.07693 3205
185.76923 495.38461 3220
215.72116 493.07693 3205
247.69231 495.38461 3220
276.66345 491.84616 3197
308.07693 492.92307 3204
329.68268 479.53845 3117
349.03845 465.38461 3025
374.875 461.38461 2999
393.61539 449.84616 2924
423.46155 451.69232 2936
461.84616 461.84616 3002
481.39423 453.07693 2945
514.03845 456.92307 2970
534.9231 450.46155 2928
565.5769 452.46155 2941
595.26923 453.53845 2948
614.51923 446.92307 2905
638.47113 444.15384 2887
664.38464 442.92307 2879
710.81732 454.92307 2957
736.75 453.38461 2947
759.375 450 2925
775.11536 442.92307 2879
809.49036 446.61539 2903
828.75 442 2873
867.10577 447.53845 2909
892.30768 446.15384 2900
914.16345 443.23077 2881
936.30768 440.61539 2864
979.66345 447.84616 2911
996.9231 443.07693 2880
1012.875 438 2847
1050.8462 442.46155 2876
1084.875 445.07693 2893
1101.1538 440.46155 2863
1150.3654 448.92307 2918
1167.5193 444.76923 2891
1162.6538 432.61539 2812
1221.4231 444.15384 2887
1351.7307 480.61539 3124
1405.6538 488.92307 3178
1388.7596 472.76923 3073
1419.2307 473.07693 3075
1449.7404 473.38461 3077
1473.5577 471.53845 3065
1528.0385 479.38461 3116
1568 482.46155 3136
1613.4423 487.07693 3166
1630.9038 483.23077 3141
1426.8269 415.07693 2698
1010.1539 288.61539 1876
561.77887 157.69231 1025
567.1731 156.46153 1017
524.19232 142.15384 924
643.26923 171.53847 1115
633.46155 166.15384 1080
611.05768 157.69231 1025
584.56732 148.46153 965
609.84613 152.46153 991
581.25 143.07692 930
592.09613 143.53847 933
567.56732 135.53847 881
571.46155 134.46153 874
597.11536 138.46153 900
597.01923 136.46153 887
619.88464 139.69231 908
616.84613 137.07692 891
631.02887 138.30769 899
631.13464 136.46153 887
627.40387 133.84616 870
643.0769 135.38461 880
664.86536 138.15384 898
642 131.69231 856
651.75 132 858
0 47 65300
1 47 65300
2 47 65300
3 47 65300
4 47 65300
5 47 65300
6 47 65300
-2523.4136 587.64423 3595
-2466 582.25 3562
-2408.5386 576.69232 3528
-2404.2307 583.88464 3572
-2333.3943 574.89423 3517
-2348.6155 587.15387 3592
-2249.6538 570.80768 3492
-2252.8845 580.28845 3550
-2192.5 573.4231 3508
-2177.2307 578.3269 3538
-2082.6345 561.98077 3438
-2094.8845 574.40387 3514
-2031.7693 566.23077 3464
-2004.2307 567.86536 3474
-1985.5769 572.11536 3500
-1959.1731 574.24036 3513
-1929.7788 575.5481 3521
-1901.8462 577.34613 3532
-1855.7212 573.58655 3509
-1843.2693 580.28845 3550
-1821.3654 584.21155 3574
-1760.5 575.5481 3521
-1685.9423 561.98077 3438
-1669.7115 567.7019 3473
-1655.1635 574.24036 3513
-1605.2307 568.51923 3478
-1581.2788 571.9519 3499
-1537.0193 568.02887 3475
-1505.7693 568.84613 3480
-1453.6923 561.65387 3436
-1430.1635 565.41345 3459
-1383.1731 559.85577 3425
-1331.7115 552.1731 3378
-1292.3077 549.23077 3360
-1270.125 553.64423 3387
-1247.4231 558.05768 3414
-1185.0673 544.49036 3331
-1146.1154 541.22113 3311
-1125.0481 546.4519 3343
-1089.9615 544.98077 3334
-1047.75 539.75 3302
-1020.6154 542.2019 3317
-983.65387 539.4231 3300
-944.13464 535.00964 3273
-905.13464 530.59613 3246
-869.61536 527.98077 3230
-822.2019 517.68268 3167
-801 523.73077 3204
-762.5 518.5 3172
-737.53845 522.4231 3196
-691.5481 511.14423 3127
-652.1731 503.95193 3083
-622.52887 503.95193 3083
-602.5 512.125 3133
-559.40387 500.51923 3062
-526.6731 497.41345 3043
-507.22116 507.22116 3103
-469.38461 498.72116 3051
-440.625 499.375 3055
-429.55768 521.60577 3191
-408.625 534.35577 3269
-380.53845 539.09613 3298
-352.74039 545.14423 3335
-318.75 541.875 3315
-289.99039 547.75964 3351
-253.07692 537.78845 3290
-221.77884 538.60577 3295
-193.09616 547.10577 3347
-161.68269 549.72113 3363
-129.69231 551.19232 3372
-94.875 537.625 3289
-63.76923 542.03845 3316
-31.923077 542.69232 3320
0 540.89423 3309
31.826923 541.05768 3310
63.384617 538.76923 3296
94.875 537.625 3289
127.5 541.875 3315
158.65384 539.4231 3300
190.61539 540.0769 3304
218.95192 531.74036 3253
254 539.75 3302
284.97116 538.27887 3293
318.26923 541.05768 3310
340.15384 525.69232 3216
371.76923 526.6731 3222
368 481.23077 2944
401.96155 488.09616 2986
427.64423 484.66345 2965
450.15384 478.28845 2926
477.79807 477.79807 2923
512.13464 483.68268 2959
536.38464 479.92307 2936
559.23077 475.34616 2908
589.81732 477.47116 2921
622.34613 480.90384 2942
642.00964 474.52884 2903
670.15387 474.69232 2904
705.28845 479.59616 2934
731.5 478.28845 2926
761.4519 479.43268 2933
774.30768 470.11539 2876
806.7019 472.89423 2893
846.9231 479.92307 2936
870.38464 477.30768 2920
895.0769 475.50961 2909
907.5 467.5 2860
947.09613 473.54807 2897
965.19232 468.80768 2868
993.46155 469.13461 2870
1024.9712 470.93268 2881
1043.5385 466.84616 2856
1074 468.15384 2864
1085.7693 461.45193 2823
1126.7115 467.17307 2858
1161.0577 469.95193 2875
1195.3173 472.56732 2891
1265 488.75 2990
1317.5481 497.74039 3045
1391.0577 514.08655 3145
1409.5481 509.83655 3119
1461.6923 517.68268 3167
1488.375 516.375 3159
1525 518.5 3172
1515.2885 505.09616 3090
1568 512.61536 3136
1555.3462 498.88461 3052
1534.3269 483.02884 2955
1577.0193 487.44232 2982
1576.0769 478.45193 2927
1450.7596 432.68268 2647
1224.6923 358.96155 2196
608.15387 175.23077 1072
650.76923 184.38461 1128
539.61536 150.38461 920
575.88464 157.90384 966
573.66345 154.79808 947
608.61536 161.66347 989
620.625 162.31731 993
627 161.5 988
676.44232 171.63461 1050
687.84613 171.96153 1052
650.85577 160.35577 981
669.71155 162.64423 995
655.38464 156.92308 960
676.38464 159.70192 977
637.34613 148.42308 908
675.25 155.125 949
641.10577 145.31731 889
670.11536 149.89423 917
658.2019 145.31731 889
666 145.15384 888
674.53845 145.15384 888
0 48 65300
1 48 65300
2 48 65300
3 48 65300
4 48 65300
5 48 65300
-2516 612 3536
-2450.4136 604.21155 3491
-2463.2307 615.80768 3558
-2441.9905 619.09613 3577
-2408.9424 619.44232 3579
-2340.6924 610.61536 3528
-2327.0386 615.98077 3559
-2256.0962 606.11536 3502
-2241.4614 611.30768 3532
-2205.625 610.78845 3529
-2187.6924 615.28845 3555
-2140.1826 611.48077 3533
-2087.1345 605.94232 3501
-2038.8077 601.61536 3476
-2039.4231 611.8269 3535
-1980.4712 604.21155 3491
-1959.1731 608.01923 3513
-1927.5865 608.71155 3517
-1905.6154 612.51923 3539
-1869.4712 611.8269 3535
-1823.0193 607.6731 3511
-1785.6923 606.46155 3504
-1777.5 615.28845 3555
-1712.4231 604.38464 3492
-1673.5577 602.48077 3481
-1651.3943 606.63464 3505
-1616.3077 606.11536 3502
-1567.2693 600.23077 3468
-1554.2693 608.19232 3514
-1488.0288 595.21155 3439
-1474.4231 603.1731 3485
-1419.4135 594.1731 3433
-1398.5193 599.36536 3463
-1358.125 596.25 3445
-1340 603 3484
-1289.625 595.21155 3439
-1282.5 607.5 3510
-1228.4712 597.63464 3453
-1202.5385 601.26923 3474
-1172.8365 603.1731 3485
-1130.1731 598.3269 3457
-1110.5769 605.76923 3500
-1059.6923 596.0769 3444
-1018.8269 591.5769 3418
-1003.2692 601.96155 3478
-974.28845 604.73077 3494
-919.15387 590.88464 3414
-895.15387 596.76923 3448
-851.5 589.5 3406
-822.35577 592.09613 3421
-794.30768 595.73077 3442
-749.49036 586.55768 3389
-718.38464 587.76923 3396
-690.5769 591.9231 3420
-644.61536 580.15387 3352
-614.02887 581.71155 3361
-585 585 3380
-545.63464 577.73077 3338
-517.84613 582.5769 3366
-485.33655 582.40387 3365
-455.13461 585.1731 3381
-417.375 577.90387 3339
-383.65384 575.48077 3325
-353.26923 578.0769 3340
-318.55768 573.40387 3313
-285.40384 570.80768 3298
-256.69232 577.55768 3337
-219.22116 563.71155 3257
-187.5 562.5 3250
-157.5 567 3276
-128.03847 576.1731 3329
-94.846153 569.0769 3288
-61.71154 555.40387 3209
-31.240385 562.3269 3249
0 564.23077 3260
31.14423 560.59613 3239
61.923077 557.30768 3220
92.567307 555.40387 3209
123.38461 555.23077 3208
153.22116 551.59613 3187
185.30769 555.9231 3212
217.13461 558.34613 3226
247.84616 557.65387 3222
281.76923 563.53845 3256
308.36539 555.05768 3207
341.21155 558.34613 3226
359.19232 538.78845 3113
374.75 518.88464 2998
398.32693 512.13464 2959
427.93268 513.51923 2967
456.46155 513.51923 2967
483.19232 511.61539 2956
507.11539 507.11539 2930
539.125 510.75 2951
561.34613 505.21155 2919
592.84613 508.15384 2936
625.09613 511.44232 2955
649.52887 508.32693 2937
668.0769 501.05768 2895
695.6731 500.88461 2894
727 503.30768 2908
743.01923 495.34616 2862
786.96155 505.90384 2923
808.375 501.75 2899
835.09613 501.05768 2895
863.23077 501.23077 2896
898.76923 505.55768 2921
921.77887 502.78845 2905
941.21155 498.28845 2879
978.31732 503.13461 2907
1003.8461 501.92307 2900
1015.3654 493.96155 2854
1059.9807 502.09616 2901
1070.25 493.96155 2854
1084.2307 487.90384 2819
1147.2115 503.65384 2910
1145.3077 490.84616 2836
1253.6154 524.76923 3032
1282.3462 524.59613 3031
1310.1923 524.0769 3028
1359.6538 532.03845 3074
1381.5288 529.09613 3057
1416.9231 531.34613 3070
1457.2788 535.3269 3093
1487.5 535.5 3094
1513.3269 534.11536 3086
1530 529.61536 3060
1528.8462 519.23077 3000
1514.5962 504.86539 2917
1590.7693 520.61536 3008
1583.6154 509.01923 2941
137 48 65300
138 48 65300
639.9231 195.23077 1128
654.23077 196.26923 1134
519.08655 153.17308 885
553.23077 160.61539 928
560.33655 160.09616 925
556.30768 156.46153 904
603.75 167.19231 966
604.15387 164.76923 952
669.35577 179.82692 1039
651.88464 172.55769 997
615.69232 160.61539 928
642.78845 165.28847 955
613.74036 155.59616 899
624.46155 156.11539 902
634.53845 156.46153 904
638.96155 155.42308 898
625.24036 150.05769 867
624.80768 147.98077 855
638.9519 149.36539 863
635.25 146.59616 847
675.2981 153.86539 889
0 49 65300
1 49 65300
2 49 65300
3 49 65300
4 49 65300
5 49 65300
-2561.5386 657.69232 3600
-2480.5962 645.63464 3534
-2528.3076 667.19232 3652
-2412.6345 645.63464 3534
-2444.6155 663.53845 3632
-2376.5193 654.40387 3582
-2363 660.25 3614
-2292.8174 650.2019 3559
-2268.1155 652.94232 3574
-2179.375 637.0481 3487
-2172.3076 644.90387 3530
-2111.1057 636.68268 3485
-2091.9038 641.06732 3509
-2035.2885 633.94232 3470
-2018.0769 639.05768 3498
-1974.2307 635.76923 3480
-1974.7885 646.91345 3541
-1934.1635 644.72113 3529
-1891.0769 641.61536 3512
-1837.2115 634.6731 3474
-1830.8077 644.1731 3526
-1773.9712 635.9519 3481
-1759.5 642.89423 3519
-1714.875 638.875 3497
-1675 636.5 3484
-1657.0481 642.52887 3517
-1617.6923 640.33655 3505
-1579.9231 638.69232 3496
-1548.5193 639.60577 3501
-1503.1731 634.6731 3474
-1466.3846 633.21155 3466
-1427.2693 630.65387 3452
-1403.3654 634.85577 3475
-1388.4807 643.44232 3522
-1340.3846 636.68268 3485
-1301.25 633.94232 3470
-1285.7885 642.89423 3519
-1260.4904 647.27887 3543
-1217.7693 642.71155 3518
-1157.6923 628.46155 3440
-1155.0193 645.4519 3533
-1104.8654 636.13464 3482
-1072.3077 636.68268 3485
-1042.0769 638.69232 3496
-994.61536 629.9231 3448
-962.01923 630.28845 3450
-934.5 634.125 3471
-901.38464 634.30768 3472
-859.5 628.09613 3438
-832.21155 632.48077 3462
-802.38464 635.22113 3477
-762.09613 629.55768 3446
-741.23077 640.15387 3504
-692.19232 626.26923 3428
-655.38464 622.61536 3408
-625.53845 625.53845 3424
-593.65387 626.63464 3430
-566.55768 633.21155 3466
-524.46155 622.7981 3409
-497.45193 630.10577 3449
-463.48077 629.00964 3443
-425 621.15387 3400
-397.38461 629.19232 3444
-358.66345 619.50964 3391
-329.23077 625.53845 3424
-291.54807 615.49036 3369
-259.69232 616.76923 3376
-228.71153 620.78845 3398
-196.90384 623.52887 3413
-161.00961 611.83655 3349
-128.57692 610.74036 3343
-98.625 624.625 3419
-64.384613 611.65387 3348
-32.701923 621.33655 3401
0 615.6731 3370
31.836538 604.89423 3311
64.519234 612.93268 3355
95.394234 604.16345 3307
125.53846 596.30768 3264
157.45192 598.31732 3275
188.94231 598.31732 3275
219.82692 596.6731 3266
255 605.625 3315
282.80768 597.03845 3268
310.57693 590.09613 3230
337.72116 583.33655 3193
370.03845 585.89423 3207
393.5 575.11536 3148
424.30768 575.84613 3152
454.75961 576.02887 3153
479.53845 569.4519 3117
513.9231 574.38464 3144
539.8269 569.81732 3119
564.7019 564.7019 3091
588.65387 559.22113 3061
626.76923 567.0769 3104
655.13464 565.7981 3097
672.75 555.75 3042
695.30768 550.4519 3013
720.19232 547.34613 2996
754.25 551.18268 3017
768.72113 540.9519 2961
802.5769 544.60577 2981
816.46155 534.9231 2928
857.30768 542.96155 2972
886.77887 543.50964 2975
901.23077 535.10577 2929
934.15387 537.84613 2944
954.28845 533.27887 2919
970.91345 527.06732 2885
1008 532 2912
1041.3365 534.74036 2927
1065.4615 532.73077 2916
1055.25 514.09613 2814
1098.0769 521.58655 2855
1161.0096 538.02887 2945
1184.8846 536.01923 2934
1234.5962 545.51923 2986
1272.1923 549.35577 3007
1296.7788 547.52887 2997
1340.1923 553.55768 3030
1353.9615 547.34613 2996
1407.2307 557.02887 3049
1441.2596 558.85577 3059
1475 560.5 3068
1502.5385 559.76923 3064
1549.5 566.16345 3099
1578.2788 565.7981 3097
1548.8654 544.97113 2983
1628.3173 562.50964 3079
1580.3846 536.2019 2935
1616.2788 538.75964 2949
138 49 65300
1458.5481 469.70193 2571
1108.2693 350.95193 1921
734.93268 228.91347 1253
756.51923 231.83653 1269
817.78845 246.63461 1350
821.53845 243.89423 1335
715.625 209.18269 1145
676.5 194.75 1066
682.88464 193.65384 1060
687.84613 192.19231 1052
601.09613 165.51923 906
628.65387 170.63461 934
613.05768 164.05769 898
602.30768 158.94231 870
640.85577 166.79808 913
625.44232 160.58653 879
642.5481 162.77884 891
670.11536 167.52884 917
687.0769 169.53847 928
761.25 185.43269 1015
665.4231 160.03847 876
0 50 65300
1 50 65300
2 50 65300
3 50 65300
4 50 65300
5 50 65300
-2533.0769 684.61536 3560
-2512.8845 688.46155 3580
-2473.6155 687.11536 3573
-2385.3269 671.9231 3494
-2361.1538 674.61536 3508
-2352.6345 681.9231 3546
-2310.6924 679.61536 3534
-2218.7307 662.30768 3444
-2253.5193 682.88464 3551
-2196.25 675.76923 3514
-2180.3076 681.34613 3543
-2104.4424 668.0769 3474
-2043.6154 659.23077 3428
-2047.0193 671.15387 3490
-1999.6154 666.53845 3466
-1966.8557 666.73077 3467
-1940.2115 669.03845 3479
-1900.7307 666.9231 3468
-1874.3846 669.4231 3481
-1878.4615 683.0769 3552
-1838.5962 680.96155 3541
-1796.9038 678.0769 3526
-1747 671.9231 3494
-1717.8173 673.65387 3503
-1679.3269 671.73077 3493
-1643.8557 670.96155 3489
-1626.9231 677.88464 3525
-1574.5 670 3484
-1537.9038 668.65387 3477
-1493.2212 663.65387 3451
-1453.6923 660.76923 3436
-1435.9519 667.88464 3473
-1398.1154 665.76923 3462
-1362.8557 664.80768 3457
-1330 665 3458
-1290.75 661.9231 3442
-1278.4807 672.88464 3499
-1223.8462 661.53845 3440
-1218.4615 676.9231 3520
-1167.7885 667.30768 3470
-1146.8462 674.61536 3508
-1105.8173 670.19232 3485
-1068.6154 667.88464 3473
-1027.1731 662.69232 3446
-994.90387 663.26923 3449
-963.41345 664.4231 3455
-929.9231 664.23077 3454
-879.31732 651.34613 3387
-876 673.84613 3504
-822.83655 658.26923 3423
-791.76923 659.80768 3431
-772.26923 671.53845 3492
-724.73077 658.84613 3426
-684.51923 651.9231 3390
-659.80768 659.80768 3431
-618.0481 650.5769 3383
-597.98077 664.4231 3455
-561.16345 660.19232 3433
-527.0769 658.84613 3426
-495.72116 660.96155 3437
-458.09616 654.4231 3403
-425.625 654.80768 3405
-398.07693 663.46155 3450
-363.74039 661.34613 3439
-328.65384 657.30768 3418
-298.90384 664.23077 3454
-262.69232 656.73077 3415
-232.34616 663.84613 3452
-198.69231 662.30768 3444
-165.14423 660.5769 3435
-132.30769 661.53845 3440
-98.971153 659.80768 3431
-66.230766 662.30768 3444
-32.884617 657.69232 3420
0 665.96155 3463
32.96154 659.23077 3428
66.134613 661.34613 3439
100.32692 668.84613 3478
130.80769 654.03845 3401
164.71153 658.84613 3426
198.69231 662.30768 3444
229.78847 656.53845 3414
262.69232 656.73077 3415
295.18268 655.96155 3411
327.5 655 3406
359.72116 654.03845 3401
393.11539 655.19232 3407
423.875 652.11536 3391
456.88461 652.69232 3394
486.92307 649.23077 3376
520.46155 650.5769 3383
552.00964 649.4231 3377
577.21155 641.34613 3335
617.68268 650.19232 3381
635.38464 635.38464 3304
671.19232 639.23077 3324
699.98077 636.34613 3309
728.25964 633.26923 3293
770.0769 641.73077 3337
804.56732 643.65387 3347
816 627.69232 3264
850.75964 630.19232 3277
876.88464 626.34613 3257
900.9519 621.34613 3231
920.19232 613.46155 3190
953.84613 615.38464 3200
974.46155 609.03845 3167
1009.3558 611.73077 3181
1033.0769 607.69232 3160
1063.125 607.5 3159
1069.2693 594.03845 3089
1102.5288 595.96155 3099
1138.1731 599.03845 3115
1153.5 591.53845 3076
1175.3846 587.69232 3056
1212.2596 591.34613 3075
1264.8462 602.30768 3132
1291.6538 600.76923 3124
1334.8077 606.73077 3155
1349.1346 599.61536 3118
1358.3269 590.5769 3071
1398.25 595 3094
1418.3077 590.96155 3073
1460.1057 595.96155 3099
1461.5385 584.61536 3040
1493.7115 585.76923 3046
1530 588.46155 3060
1554.3269 586.53845 3050
1576.9038 584.03845 3037
1593.4135 579.4231 3013
1615.9231 577.11536 3001
1637.1057 574.4231 2987
1673.6346 577.11536 3001
1693.4135 574.03845 2985
1515.5769 505.19232 2627
1109.1443 363.65384 1891
1076.0577 347.11539 1805
1043.1346 331.15384 1722
1084.3077 338.84616 1762
648.125 199.42308 1037
658.73077 199.61539 1038
631.99036 188.65384 981
651.88464 191.73077 997
588.49036 170.57692 887
607.11536 173.46153 902
609.64423 171.73077 893
614.0769 170.57692 887
645.76923 176.92308 920
656.03845 177.30769 922
636.05768 169.61539 882
642.34613 169.03847 879
706.3269 183.46153 954
663 170 884
703.40387 178.07692 926
0 51 65300
1 51 65300
2 51 65300
3 51 65300
4 51 65300
5 51 65300
-2559.4038 726.31732 3597
-2554.2981 734.7981 3639
-2502.6924 729.9519 3615
-2353.2405 696.02887 3447
-2339.6155 701.88464 3476
-2328.0864 708.5481 3509
-2325.0769 718.03845 3556
-2255.4519 706.93268 3501
-2242.0962 713.39423 3533
-2195.625 709.35577 3513
-2174.7693 713.59613 3534
-2116.5576 705.51923 3494
-2096.0769 709.96155 3516
-2078.6924 715.61536 3544
-2001.9231 700.6731 3470
-1993.5193 709.55768 3514
-1963.6346 710.97113 3521
-1902.9231 701.0769 3472
-1903.4615 713.7981 3535
-1853.6057 707.74036 3505
-1814.7115 705.72113 3495
-1782.6346 706.3269 3498
-1765.5 712.99036 3531
-1699.6731 699.86536 3466
-1691.8269 710.56732 3519
-1633.4904 700.06732 3467
-1606.6154 702.89423 3481
-1555.0673 694.81732 3441
-1530.3846 698.65387 3460
-1516.5865 707.74036 3505
-1470.1923 701.68268 3475
-1432.6443 699.66345 3465
-1394.8846 697.44232 3454
-1362.0673 697.64423 3455
-1348.0769 707.74036 3505
-1312.125 706.52887 3499
-1272.6346 703.2981 3483
-1231.3173 698.85577 3461
-1193.5385 696.23077 3448
-1175.1923 705.11536 3492
-1143.25 706.125 3497
-1092.4904 695.22113 3443
-1066.4615 699.86536 3466
-1031.9423 699.05768 3462
-1002.4039 701.68268 3475
-954.21155 690.98077 3422
-932.34613 699.25964 3463
-879.05768 683.71155 3386
-862.5 696.63464 3450
-834.61536 701.0769 3472
-800.76923 700.6731 3470
-766.0769 699.46155 3464
-741.86536 708.14423 3507
-700.26923 700.26923 3468
-665.38464 698.65387 3460
-632.11536 698.65387 3460
-590.36536 688.75964 3411
-565.90387 699.05768 3462
-531.69232 697.84613 3456
-491.25 687.75 3406
-464.82693 697.24036 3453
-428 691.38464 3424
-395.42307 691.99036 3427
-363.95193 694.81732 3441
-333.07693 699.46155 3464
-296.91345 692.7981 3431
-266.23077 698.85577 3461
-233.35577 700.06732 3467
-198.69231 695.4231 3444
-165.38461 694.61536 3440
-133.30769 699.86536 3466
-98.682693 690.77887 3421
-65.634613 689.16345 3413
-33.317307 699.66345 3465
0 688.96155 3412
32.884617 690.5769 3420
65.615387 688.96155 3412
98.42308 688.96155 3412
132.76923 697.03845 3452
163.70192 687.5481 3405
196.67308 688.35577 3409
232.54808 697.64423 3455
262.76923 689.76923 3416
297.08655 693.2019 3433
328.36539 689.56732 3415
362.78845 692.59613 3430
391.73077 685.52887 3395
424.625 685.93268 3397
458.09616 687.14423 3403
482.01923 674.8269 3342
520.76923 683.50964 3385
548.90387 678.05768 3358
591.5769 690.1731 3418
627.73077 693.80768 3436
664.03845 697.24036 3453
678.46155 678.46155 3360
716.26923 683.71155 3386
754.13464 688.55768 3410
770.30768 674.01923 3338
803.36536 674.8269 3342
837 676.03845 3348
862.7019 670.99036 3323
887.65387 665.74036 3297
934.97113 677.0481 3353
964.61536 675.23077 3344
982.46155 665.53845 3296
1036.6154 680.27887 3369
1052.8269 669.98077 3318
1062.5 656.25 3250
1101.4904 660.89423 3273
1144.3846 667.55768 3306
1153.0481 654.43268 3241
1190.7885 658.06732 3259
1231.5 663.11536 3284
1259.6154 661.2981 3275
1267.8462 649.38464 3216
1304.4231 652.21155 3230
1336.3077 652.61536 3232
1362.7307 650.39423 3221
1389.375 648.375 3211
1435.2885 655.24036 3245
1443.8943 645.14423 3195
1463.0769 640.09613 3170
1500.625 643.125 3185
1530.2885 642.72113 3183
1547.6538 637.26923 3156
1574.5 635.85577 3149
1597.6443 633.02887 3135
1635.5769 636.05768 3150
1638.3654 625.55768 3098
1664.9231 624.34613 3092
1672.7307 616.26923 3052
1690.9231 612.23077 3032
1698.5193 604.55768 2994
1714.6154 600.11536 2972
1791.2885 616.6731 3054
1743.1538 590.4231 2924
1767.6346 589.21155 2918
1728.6154 567.2019 2809
1106.25 357.40384 1770
804.69232 256.03845 1268
604.28845 189.40384 938
630.30768 194.65384 964
646.21155 196.67308 974
652.88464 195.86539 970
618.51923 182.94231 906
655.61536 191.22116 947
626.81732 180.31731 893
678.80768 192.63461 954
659.85577 184.75961 915
663.53845 183.34616 908
667.08655 181.93269 901
661.5 178.09616 882
708.72113 188.39423 933
0 52 65300
1 52 65300
2 52 65300
3 52 65300
4 52 65300
5 52 65300
6 52 65300
-2511.4807 756.88464 3578
-2497.8462 763.23077 3608
-2404.4424 745.03845 3522
-2421.0576 760.90387 3597
-2385.8076 760.69232 3596
-2310.0386 747.36536 3533
-2288.3076 751.38464 3552
-2257.9614 752.65387 3558
-2205 746.30768 3528
-2164.3076 743.98077 3517
-2118.9807 739.96155 3498
-2107.4038 747.78845 3535
-2035.2885 734.03845 3470
-2025.5769 742.71155 3511
-1967.9904 733.8269 3469
-1974.2307 748.84613 3540
-1915.5288 739.3269 3495
-1880.8462 738.90387 3493
-1857.3077 742.9231 3512
-1825.0962 743.55768 3515
-1789.2596 742.71155 3511
-1741 736.5769 3482
-1702.125 734.25 3471
-1679.8077 739.11536 3494
-1637.2596 735.09613 3475
-1618.1538 741.65387 3506
-1555.9712 728.3269 3443
-1552.5 742.5 3510
-1500.5769 733.61536 3468
-1468.5 734.25 3471
-1460.7596 747.36536 3533
-1395.2885 730.86536 3455
-1367.5865 733.8269 3469
-1337.3077 735.51923 3477
-1304.625 735.94232 3479
-1261.3077 730.23077 3452
-1228.1154 730.23077 3452
-1203.5769 735.51923 3477
-1164.0865 731.71155 3459
-1152.4038 745.6731 3525
-1104.2307 736.15387 3480
-1061.8462 730.01923 3451
-1039.0962 737.4231 3486
-1009.9039 740.59613 3501
-954.76923 724.30768 3424
-938.53845 737.4231 3486
-898.52887 732.13464 3461
-864.75 731.71155 3459
-824.03845 725.15387 3428
-794.0769 727.90387 3441
-766.74036 733.40387 3467
-730.23077 730.23077 3452
-694.81732 727.90387 3441
-667.11536 733.8269 3469
-625.90387 724.73077 3426
-599.88464 733.19232 3466
-560.01923 724.73077 3426
-529.53845 728.11536 3442
-491.10577 720.28845 3405
-466.03845 732.34613 3462
-429.375 726.63464 3435
-392.53845 719.65387 3402
-360.35577 720.71155 3407
-333.75 734.25 3471
-294.49039 719.86536 3403
-265 728.75 3445
-229.45192 721.13464 3409
-197.01923 722.40387 3415
-165.43269 727.90387 3441
-132.46153 728.53845 3444
-99.92308 732.76923 3464
-65.5 720.5 3406
-33.326923 733.19232 3466
0 721.13464 3409
33.096153 728.11536 3442
66.153847 727.69232 3440
99.980766 733.19232 3466
133.5 734.25 3471
165.86539 729.80768 3450
198.11539 726.4231 3434
231.67308 728.11536 3442
264.46155 727.26923 3438
297.51923 727.26923 3438
326.82693 719.01923 3399
362.89423 725.78845 3431
394.5 723.25 3419
430.125 727.90387 3441
461.19232 724.73077 3426
484.18268 710.13464 3357
525.38464 722.40387 3415
556.75 720.5 3406
590.53845 721.76923 3412
625.1731 723.88464 3422
649.80768 714.78845 3379
672.2019 704.21155 3329
715.84613 715.84613 3384
746.61536 714.15387 3376
765 701.25 3315
815.14423 717.3269 3391
837.5 708.65387 3350
877.5 715 3380
896.80768 704.63464 3331
941.10577 713.94232 3375
977.88464 717.11536 3390
999.15387 709.0769 3352
1025.5385 705.05768 3333
1060.7596 707.1731 3343
1080.4807 699.13464 3305
1115.2885 701.03845 3314
1148.8846 702.09613 3319
1168.7019 694.90387 3285
1207.2307 698.9231 3304
1233.375 695.75 3289
1253.0769 689.19232 3258
1278.0962 685.80768 3242
1317.75 690.25 3263
1337.9615 684.53845 3236
1377.5385 688.76923 3256
1397.1635 683.05768 3229
1448.5577 692.78845 3275
1469.6538 687.9231 3252
1477.3846 677.13464 3201
1510.9904 678.40387 3207
1551.9231 682.84613 3228
1583.9423 683.26923 3230
1599 676.5 3198
1613.4423 669.73077 3166
1642.3269 669.09613 3163
1667.9807 667.19232 3154
