# .PCD v0.7 - Point Cloud Data file format
VERSION 0.7
FIELDS x y z
SIZE 4 4 4
TYPE F F F
COUNT 1 1 1
WIDTH 2133
HEIGHT 1
VIEWPOINT 0 0 0 1 0 0 0
POINTS 2133
DATA ascii
-117.25961 -273.60577 1355
-105.53846 -277.03845 1372
-94.83654 -284.50961 1409
-88.78846 -310.75961 1539
-71.730766 -301.26923 1492
-59.26923 -311.16345 1541
-39.201923 -274.41345 1359
-26.865385 -282.08655 1397
-13.307693 -279.46155 1384
0 -276.63461 1370
13.173077 -276.63461 1370
25.634615 -269.16345 1333
39.23077 -274.61539 1360
50.384617 -264.51923 1310
62.932693 -264.31732 1309
77.769234 -272.19232 1348
89.04808 -267.14423 1323
103.38461 -271.38461 1344
114.92308 -268.15384 1328
129.80769 -272.59616 1350
143.10577 -273.20193 1353
154.15384 -269.76923 1336
164.25 -265.32693 1314
179.71153 -269.56732 1335
199.32692 -279.05768 1382
214.92308 -282.08655 1397
234.89423 -290.16345 1437
255.63461 -298.24039 1477
260.88461 -288.34616 1428
292.5 -307.125 1521
286.52884 -286.52884 1419
294.46155 -281.07693 1392
347.65384 -317.42307 1572
407.53845 -356.59616 1766
536.05768 -450.28845 2230
578.25 -467.04807 2313
107 9 65300
108 9 65300
109 9 65300
110 9 65300
111 9 65300
112 9 65300
113 9 65300
114 9 65300
115 9 65300
116 9 65300
117 9 65300
118 9 65300
119 9 65300
1144.2307 -600.72113 2975
1075.8557 -551.0481 2729
1115.8269 -557.91345 2763
1100.2212 -537.31732 2661
1189.6923 -567.80768 2812
1132.7885 -528.63464 2618
1148.6731 -524.39423 2597
1103.5962 -493.09616 2442
1172.3077 -512.88464 2540
1128.4135 -483.60577 2395
1160.0962 -487.24039 2413
1249.9904 -514.7019 2549
1480 -597.69232 2960
1551.7788 -614.85577 3045
1594.0385 -619.90387 3070
1577.5481 -602.33655 2983
1571.7693 -589.41345 2919
1628.8846 -600.11536 2972
1635.7115 -592.24036 2933
1695.1154 -603.34613 2988
1728.4615 -604.96155 2996
1727.3557 -594.66345 2945
1796.2115 -608.39423 3013
1806.4038 -602.13464 2982
1821.5385 -597.69232 2960
1830 -591.23077 2928
1889.8846 -601.3269 2978
1884.375 -590.625 2925
1942.5769 -599.91345 2971
1931.3365 -587.7981 2911
1887.3077 -566.19232 2804
151 9 65300
2045.7693 -596.68268 2955
1989.25 -572.25 2834
2007.9615 -569.8269 2822
155 9 65300
156 9 65300
157 9 65300
158 9 65300
159 9 65300
-430.76923 -107.69231 560
-461.84616 -116.92308 608
-462.75 -118.65385 617
-450.15384 -116.92308 608
-447.23077 -117.69231 612
-533.65387 -142.30769 740
-781.98077 -211.34616 1099
7 10 65300
8 10 65300
9 10 65300
10 10 65300
11 10 65300
12 10 65300
13 10 65300
-1823.25 -552.5 2873
-1531.875 -471.34616 2451
-1504.6154 -470.19232 2445
-1536.8365 -487.88461 2537
-1477.8654 -476.73077 2479
-1389.5096 -455.57693 2369
-1411.1538 -470.38461 2446
-1395.5769 -473.07693 2460
-1359.0962 -468.65384 2437
-1357.0385 -476.15384 2476
-1354.7693 -483.84616 2516
-1294.6154 -470.76923 2448
-1285.0962 -475.96155 2475
-1340.7981 -505.96155 2631
-1289 -495.76923 2578
29 10 65300
30 10 65300
31 10 65300
32 10 65300
33 10 65300
34 10 65300
35 10 65300
36 10 65300
37 10 65300
-1386.4038 -660.19232 3433
-1237.4904 -603.65387 3139
-1230.3846 -615.19232 3199
-1212.75 -621.9231 3234
-1146.2115 -603.26923 3137
43 10 65300
44 10 65300
45 10 65300
46 10 65300
47 10 65300
48 10 65300
49 10 65300
50 10 65300
51 10 65300
52 10 65300
-756.25964 -560.19232 2913
-773 -594.61536 3092
-767.06732 -613.65387 3191
-738.23077 -615.19232 3199
-665.00964 -578.26923 3007
-541.75 -492.5 2561
-547.41345 -521.34613 2711
-530.76923 -530.76923 2760
-521.40387 -548.84613 2854
-496.73077 -551.9231 2870
63 10 65300
-476.61539 -595.76923 3098
-444.08655 -592.11536 3079
-438.98077 -627.11536 3261
-375.625 -577.88464 3005
-343.15384 -571.9231 2974
-224.23077 -407.69232 2120
-140.48077 -280.96155 1461
-120.28846 -267.30768 1390
-109.30769 -273.26923 1421
-98.740387 -282.11539 1467
-85.096153 -283.65384 1475
-73.509613 -294.03845 1529
-57.23077 -286.15384 1488
-40.182693 -267.88461 1393
-26.538462 -265.38461 1380
-12.423077 -248.46153 1292
0 -262.30768 1364
13.163462 -263.26923 1369
25.576923 -255.76923 1330
38.85577 -259.03845 1347
50.115383 -250.57692 1303
61.057693 -244.23077 1270
76.153847 -253.84616 1320
88.91346 -254.03847 1321
101.15385 -252.88461 1315
114.92308 -255.38461 1328
129.13461 -258.26923 1343
142.15384 -258.46155 1344
155.30769 -258.84616 1346
169.625 -260.96155 1357
191.55769 -273.65384 1423
196.875 -262.5 1365
216.30769 -270.38461 1406
251.24039 -295.57693 1537
244.55769 -271.73077 1413
247.54808 -260.57693 1355
275.38461 -275.38461 1432
287.53845 -273.84616 1424
297.21155 -270.19232 1405
342.78845 -298.07693 1550
367.15384 -305.96155 1591
562.01923 -449.61539 2338
106 10 65300
107 10 65300
108 10 65300
109 10 65300
110 10 65300
111 10 65300
112 10 65300
113 10 65300
114 10 65300
115 10 65300
116 10 65300
117 10 65300
118 10 65300
119 10 65300
1180.3846 -590.19232 3069
1094.3846 -533.84613 2776
1138.0385 -541.9231 2818
1147.7693 -533.84613 2776
1165.5769 -529.80768 2755
1136.25 -505 2626
1160.1731 -504.42307 2623
1095.4615 -466.15384 2424
1179.6923 -491.53845 2556
1179.7693 -481.53845 2504
1199.0385 -479.61539 2494
1337.7693 -524.61536 2728
1504.5 -578.65387 3009
1626.6923 -613.84613 3192
1607.0193 -595.19232 3095
1579.6635 -574.4231 2987
1602.4615 -572.30768 2976
1632.7212 -572.88464 2979
1653 -570 2964
1714.4038 -581.15387 3022
1772.8846 -590.96155 3073
1780.7307 -583.84613 3036
1803.3654 -581.73077 3025
1797.9231 -570.76923 2968
1868.3077 -583.84613 3036
1900.625 -584.80768 3041
1887.3462 -571.9231 2974
1942.3557 -579.80768 3015
1948.4615 -573.0769 2980
1987.7307 -576.15387 2996
2023.9423 -578.26923 3007
2056.9519 -579.4231 3013
2082.4614 -578.46155 3008
2093.8364 -573.65387 2983
2054.9231 -555.38464 2888
155 10 65300
156 10 65300
2153.7788 -559.4231 2909
158 10 65300
159 10 65300
-470 -111.625 611
-447.41345 -107.60577 589
-419.25 -102.125 559
-448.67307 -110.71154 606
-409.23077 -102.30769 560
-504.80768 -127.88461 700
-692.3269 -177.75961 973
7 11 65300
8 11 65300
9 11 65300
10 11 65300
11 11 65300
12 11 65300
13 11 65300
-1870.2115 -538.39423 2947
-1751.875 -512.08655 2803
-1617.8462 -480.29807 2629
-1493.8269 -450.51923 2466
-1493.3654 -457.64423 2505
-1406.5193 -438.09616 2398
-1406.5385 -445.40384 2438
-1413.7307 -455.26923 2492
-1428.8077 -468.05768 2562
-1429.9327 -476.64423 2609
-1464.0769 -496.74039 2719
-1411.4904 -487.60577 2669
-1407.1154 -495.09616 2710
-1532.9231 -549.53845 3008
-1555 -568.1731 3110
29 11 65300
30 11 65300
31 11 65300
32 11 65300
33 11 65300
34 11 65300
35 11 65300
36 11 65300
37 11 65300
-1343.5962 -607.81732 3327
-1266.6635 -586.99036 3213
-1246.1538 -591.9231 3240
-1203.75 -586.44232 3210
-1133.7885 -566.89423 3103
43 11 65300
44 11 65300
45 11 65300
46 11 65300
47 11 65300
48 11 65300
49 11 65300
50 11 65300
51 11 65300
52 11 65300
-799.61536 -562.69232 3080
-800.25 -584.7981 3201
-752.16345 -571.64423 3129
-731.53845 -579.13464 3170
-664.56732 -548.99036 3005
-519.75 -448.875 2457
-556.90387 -503.86539 2758
-542.69232 -515.55768 2822
-504.04807 -504.04807 2759
-504.34616 -532.36536 2914
-495.61539 -553.9231 3032
-461.84616 -548.44232 3002
-448.99039 -568.72113 3113
-442.61539 -600.69232 3288
-375.375 -548.625 3003
-346.73077 -548.99036 3005
-210.16347 -363.00961 1987
-149.90384 -284.81732 1559
-114.83654 -242.43269 1327
-108.69231 -258.14423 1413
-100.28846 -272.21155 1490
-85.442307 -270.56732 1481
-76.778847 -291.75961 1597
-53.73077 -255.22116 1397
-40.067307 -253.75961 1389
-27.038462 -256.86539 1406
-12.913462 -245.35577 1343
0 -247.36539 1354
13.221154 -251.20192 1375
26.211538 -249.00961 1363
37.125 -235.125 1287
49.307693 -234.21153 1282
63.75 -242.25 1326
75.865387 -240.24039 1315
94.971153 -257.77884 1411
103.84615 -246.63461 1350
116.39423 -245.72116 1345
128.55769 -244.25961 1337
142.25961 -245.72116 1345
159.92308 -253.21153 1386
166.25 -242.98077 1330
181.73077 -246.63461 1350
196.15384 -248.46153 1360
210.61539 -250.10577 1369
252.38461 -282.07693 1544
239.71153 -253.02884 1385
260.88461 -260.88461 1428
283.84616 -269.65384 1476
290.16345 -262.52884 1437
286.63461 -247.54808 1355
345.44232 -285.36539 1562
322.38461 -255.22116 1397
661.2981 -502.58655 2751
106 11 65300
107 11 65300
108 11 65300
109 11 65300
110 11 65300
111 11 65300
112 11 65300
113 11 65300
114 11 65300
115 11 65300
116 11 65300
117 11 65300
118 11 65300
119 11 65300
1152.3077 -547.34613 2996
1109.3654 -514.09613 2814
1106.1346 -500.39423 2739
1166.375 -515.375 2821
1148.6538 -496.00961 2715
1129.3269 -476.82693 2610
1158.8462 -478.65384 2620
1131.6154 -457.46155 2504
1134.4615 -449.05768 2458
1149.1443 -445.58655 2439
1176.4423 -447.04807 2447
1306.3846 -486.69232 2664
1464 -534.9231 2928
1626.6923 -583.15387 3192
1627.2693 -572.55768 3134
1580.1923 -545.88464 2988
1625.6154 -551.5481 3019
1667.25 -555.75 3042
1673.0769 -548.0769 3000
1712.7019 -551.5481 3019
1759.0385 -557.02887 3049
1756.0962 -546.98077 2994
1789.6538 -548.44232 3002
1794.2885 -541.13464 2962
1844.9231 -547.71155 2998
1903.125 -556.2981 3045
1936.8462 -557.5769 3052
1964.9038 -557.21155 3050
1961.5385 -548.0769 3000
1963.8462 -540.76923 2960
1991.6346 -540.58655 2959
2052.1731 -549.1731 3006
2033.3077 -536.56732 2937
2059.4424 -536.01923 2934
2035 -522.5 2860
2130.2886 -539.6731 2954
156 11 65300
157 11 65300
158 11 65300
159 11 65300
-427.69232 -96.230766 556
-395 -90 520
-456 -105.23077 608
-431.64423 -100.90385 583
-438.46155 -103.84615 600
-490.38461 -117.69231 680
-690.90387 -168.05769 971
7 12 65300
8 12 65300
9 12 65300
10 12 65300
11 12 65300
12 12 65300
-1928.1827 -518.01923 2993
-1926.0577 -525.28845 3035
-1943.75 -538.26923 3110
-1766.1538 -496.73077 2870
-1608.3173 -459.51923 2655
-1530.3269 -444.28845 2567
-1355.4904 -399.98077 2311
-1338.4615 -401.53845 2320
-1368.3462 -417.46155 2412
-1417.6538 -439.96155 2542
-1461.1731 -461.42307 2666
-1425.3077 -458.13461 2647
-1453.7981 -475.78845 2749
-1473.0577 -491.01923 2837
-1638.9231 -556.61536 3216
-1625 -562.5 3250
-1602.5769 -565.61536 3268
-1599.5193 -575.8269 3327
-1514.2885 -556.26923 3214
-1519.8462 -569.94232 3293
-1484.1154 -568.38464 3284
-1452.9807 -568.55768 3285
-1437.8365 -575.13464 3323
-1389.8077 -568.55768 3285
-1352.0193 -565.96155 3270
-1321.7885 -566.48077 3273
-1261.5385 -553.84613 3200
-1274.6154 -573.5769 3314
-1216.875 -561.63464 3245
-1153.5193 -546.40387 3157
43 12 65300
44 12 65300
45 12 65300
46 12 65300
47 12 65300
48 12 65300
49 12 65300
50 12 65300
51 12 65300
52 12 65300
-823.75964 -549.1731 3173
-799.75 -553.6731 3199
-762.74036 -549.1731 3173
-730.61536 -547.96155 3166
-656.8269 -514.03845 2970
-522.71155 -427.67307 2471
-554.0769 -474.92307 2744
-527.11536 -474.40384 2741
-526.88464 -499.15384 2884
62 12 65300
63 12 65300
-472.76923 -531.86536 3073
-445.67307 -534.80768 3090
-437.90384 -563.01923 3253
-374.625 -518.71155 2997
-337.73077 -506.59616 2927
-208.15384 -340.61539 1968
-148.46153 -267.23077 1544
-123.66346 -247.32692 1429
-112.07692 -252.17308 1457
-99.144234 -254.94231 1473
-83.134613 -249.40384 1441
-74.278847 -267.40384 1545
-56.153847 -252.69231 1460
-44.971153 -269.82693 1559
-28.48077 -256.32693 1481
-12.548077 -225.86539 1305
0 -238.32692 1377
13.336538 -240.05769 1387
26.673077 -240.05769 1387
36.951923 -221.71153 1281
51.23077 -230.53847 1332
62.548077 -225.17308 1301
78.75 -236.25 1365
85.817307 -220.67308 1275
101.38461 -228.11539 1318
113.88461 -227.76923 1316
125.57692 -226.03847 1306
143.52884 -234.86539 1357
154.03847 -231.05769 1335
170.125 -235.55769 1361
182.26923 -234.34616 1354
197.59616 -237.11539 1370
208.15384 -234.17308 1353
235.54808 -249.40384 1441
248.36539 -248.36539 1435
271.66345 -257.36539 1487
290.96155 -261.86539 1513
288.14423 -246.98077 1427
305.46155 -249.92308 1444
348.53845 -272.76923 1576
319.15384 -239.36539 1383
105 12 65300
106 12 65300
107 12 65300
108 12 65300
109 12 65300
110 12 65300
111 12 65300
112 12 65300
113 12 65300
114 12 65300
115 12 65300
116 12 65300
117 12 65300
118 12 65300
119 12 65300
1172.6923 -527.71155 3049
1107.3943 -486.17307 2809
1152.9807 -494.13461 2855
123 12 65300
1164.3077 -476.30768 2752
1138.4135 -455.36539 2631
1196.4423 -468.17307 2705
1118.5096 -428.36539 2475
1182.9231 -443.59616 2563
1145.8462 -420.92307 2432
1183.6538 -426.11539 2462
1320.6057 -466.09616 2693
1436.5 -497.25 2873
1578.2788 -536.01923 3097
1569.1154 -523.03845 3022
1575.9615 -515.76923 2980
1624 -522 3016
1701.7788 -537.40387 3105
1694.2693 -525.80768 3038
1723.4807 -525.80768 3038
1786.7307 -536.01923 3097
1796.5673 -530.13464 3063
1808.1346 -524.94232 3033
1852.4423 -529.26923 3058
1864 -524.25 3029
1918.75 -531.34613 3070
1940.0193 -529.09613 3057
1957.1731 -525.80768 3038
1951.0769 -516.46155 2984
1992.375 -519.75 3003
2015.8654 -518.36536 2995
2056.9519 -521.48077 3013
2081.0769 -520.26923 3006
2099.4519 -517.6731 2991
2113.2693 -514.03845 2970
2116.5864 -507.98077 2935
156 12 65300
157 12 65300
158 12 65300
159 12 65300
-468.46155 -99.54808 609
-434.5 -93.5 572
-440.25 -95.95192 587
-436.08655 -96.278847 589
-458.19232 -102.49039 627
-474.51923 -107.55769 658
-669.55768 -153.81731 941
7 13 65300
8 13 65300
9 13 65300
10 13 65300
11 13 65300
12 13 65300
-1880.5096 -477.14423 2919
-1947 -501.5 3068
-1937.5 -506.73077 3100
-1901.5385 -505.09616 3090
17 13 65300
18 13 65300
19 13 65300
20 13 65300
-1504.5 -433.5 2652
-1485.6923 -435.46155 2664
-1392.6635 -415.35577 2541
-1376.3077 -417.80768 2556
-1379.2307 -426.30768 2608
26 13 65300
-1632.8077 -523.73077 3204
-1634 -534.19232 3268
-1612.3846 -537.46155 3288
-1577.4038 -536.31732 3281
-1535.9615 -532.88464 3260
-1514.7693 -536.48077 3282
-1469.2019 -531.41345 3251
-1458.7307 -539.09613 3298
-1419.6635 -536.31732 3281
-1381.3462 -533.7019 3265
-1355.3269 -535.8269 3278
-1327.0385 -537.13464 3286
-1262.7212 -523.56732 3203
-1261.1538 -535.99036 3279
-1209.375 -527.16345 3225
-1148.0385 -513.59613 3142
-1243.7693 -571.46155 3496
44 13 65300
45 13 65300
46 13 65300
47 13 65300
48 13 65300
49 13 65300
50 13 65300
51 13 65300
52 13 65300
-799.61536 -503.46155 3080
-801 -523.73077 3204
-762.98077 -518.8269 3174
-718.15387 -508.69232 3112
-670.98077 -495.94232 3034
-527.5769 -407.67307 2494
-558.72113 -452.29807 2767
-549.23077 -466.84616 2856
-514.46155 -460.30768 2816
62 13 65300
-484.99039 -484.99039 2967
-473.69232 -503.29807 3079
-473.50961 -536.64423 3283
-454.32693 -551.68268 3375
-377.75 -493.98077 3022
-343.96155 -487.27884 2981
-218.20192 -337.22116 2063
-163.75 -278.375 1703
-123.66346 -233.58653 1429
-111.92308 -237.83653 1455
-98.067307 -238.16347 1457
-83.42308 -236.36539 1446
-75.04808 -255.16347 1561
-56.46154 -239.96153 1468
-41.134617 -233.09616 1426
-28.288462 -240.45192 1471
-13.355769 -227.04808 1389
0 -229.82692 1406
13.394231 -227.70192 1393
26.211538 -222.79808 1363
38.53846 -218.38461 1336
51.46154 -218.71153 1338
62.692307 -213.15384 1304
77.307693 -219.03847 1340
89.721153 -217.89423 1333
103.53846 -220.01923 1346
117.34615 -221.65384 1356
129.42308 -220.01923 1346
137.92308 -213.15384 1304
156.34616 -221.49039 1355
167.875 -219.52884 1343
188.05769 -228.35577 1397
203.79808 -230.97116 1413
213.23077 -226.55769 1386
237.34616 -237.34616 1452
248.71153 -234.89423 1437
265.26923 -237.34616 1452
295.76923 -251.40384 1538
295.81732 -239.47116 1465
305.25 -235.875 1443
342.56732 -253.20192 1549
316.61539 -224.26923 1372
105 13 65300
106 13 65300
107 13 65300
108 13 65300
109 13 65300
110 13 65300
111 13 65300
112 13 65300
113 13 65300
114 13 65300
115 13 65300
116 13 65300
117 13 65300
118 13 65300
119 13 65300
1198.0769 -509.18268 3115
1102.2693 -457.03845 2796
1136.4231 -459.98077 2814
1157.6923 -457.69232 2800
1193.9231 -461.28845 2822
1156.5865 -436.93268 2673
1165.9231 -430.88461 2636
1158.7307 -419.11539 2564
1187.0769 -420.42307 2572
1167.0481 -404.89423 2477
1175.9615 -399.82693 2446
1346.5962 -448.86539 2746
1459.5 -477.14423 2919
1661.8557 -533.0481 3261
1654.2693 -520.78845 3186
1559.0385 -481.88461 2948
1654.1538 -502.15384 3072
1702.875 -507.875 3107
1709.8846 -501.17307 3066
1755.25 -505.75 3094
1763.0769 -499.53845 3056
1794.8077 -500.19232 3060
1805.75 -495.125 3029
1829.4231 -493.65384 3020
1864 -495.125 3029
1928.75 -504.44232 3086
1881.6346 -484.66345 2965
1957.8173 -496.75961 3039
1963.5 -490.875 3003
2012.9423 -495.94232 3034
2048.8462 -497.57693 3044
2038.5193 -488.09616 2986
2065.8462 -487.76923 2984
2072.0769 -482.53845 2952
2100.4614 -482.53845 2952
155 13 65300
156 13 65300
157 13 65300
158 13 65300
159 13 65300
-447.69232 -89.53846 582
-433.74039 -87.846153 571
-458.25 -94 611
-454.59616 -94.46154 614
-458.92307 -96.615387 628
-475.96155 -101.53846 660
-669.55768 -144.76923 941
7 14 65300
8 14 65300
9 14 65300
10 14 65300
11 14 65300
12 14 65300
-1922.3846 -459.07693 2984
-1963.5 -476 3094
-1927.5 -474.46155 3084
-1896.6154 -474.15384 3082
17 14 65300
18 14 65300
19 14 65300
20 14 65300
21 14 65300
22 14 65300
23 14 65300
24 14 65300
-1345.3846 -391.38461 2544
26 14 65300
-1608.3462 -485.53845 3156
-1633 -502.46155 3266
-1588.8462 -498.46155 3240
-1565.3846 -500.92307 3256
-1527.0096 -498.61539 3241
-1500.4615 -500.15384 3251
-1481.4038 -504.30768 3278
-1470.6731 -511.53845 3325
-1414.0385 -502.76923 3268
-1422.3846 -517.23077 3362
-1367.3173 -508.76923 3307
-1348.0385 -513.53845 3338
-1300.1731 -507.38461 3298
-1258.0769 -503.23077 3271
-1234.875 -506.61539 3293
-1172.8846 -493.84616 3210
-1212.4615 -524.30768 3408
44 14 65300
45 14 65300
46 14 65300
47 14 65300
48 14 65300
49 14 65300
50 14 65300
51 14 65300
-905.96155 -517.69232 3365
-804.02887 -476.46155 3097
-799.75 -492.15384 3199
-758.89423 -485.69232 3157
-729.46155 -486.30768 3161
-668.10577 -464.76923 3021
-550 -400 2600
-584.97113 -445.69232 2897
-560.96155 -448.76923 2917
61 14 65300
62 14 65300
63 14 65300
-471.38461 -471.38461 3064
-444.80768 -474.46155 3084
-451.63461 -516.15387 3355
-382.5 -470.76923 3060
-352.61539 -470.15384 3056
-226.98077 -330.15384 2146
-153.75 -246 1599
-131.625 -234 1521
-117.76923 -235.53847 1531
-98 -224 1456
-89.019234 -237.38461 1543
-76.057693 -243.38461 1582
-59.46154 -237.84616 1546
-44.221153 -235.84616 1533
-29.461538 -235.69231 1532
-13.346154 -213.53847 1388
0 -212.92308 1384
12.923077 -206.76923 1344
26.75 -214 1391
37.528847 -200.15384 1301
49.96154 -199.84616 1299
62.5 -200 1300
80.480766 -214.61539 1395
86.28846 -197.23077 1282
102.61539 -205.23077 1334
116.39423 -206.92308 1345
135.86539 -217.38461 1413
147.33653 -214.30769 1393
164.07692 -218.76923 1422
168 -206.76923 1344
180.65384 -206.46153 1342
199.18269 -212.46153 1381
233.84616 -233.84616 1520
236.36539 -222.46153 1446
244.03847 -216.92308 1410
279.70193 -235.53847 1531
292.69232 -234.15384 1522
292.99039 -223.23077 1451
294.03845 -213.84616 1390
344.55768 -239.69231 1558
315.46155 -210.30769 1367
105 14 65300
106 14 65300
107 14 65300
108 14 65300
109 14 65300
110 14 65300
111 14 65300
112 14 65300
113 14 65300
114 14 65300
115 14 65300
116 14 65300
117 14 65300
118 14 65300
119 14 65300
1181.1538 -472.46155 3071
1123.5577 -438.46155 2850
1155.4038 -440.15384 2861
1159.3462 -431.38461 2804
1173.1923 -426.61539 2773
1179.5193 -419.38461 2726
1190.25 -414 2691
1176.8077 -400.61539 2604
1177.3846 -392.46155 2551
1146.7885 -374.46155 2434
1180.2885 -377.69232 2455
1331.3943 -417.69232 2715
1509 -464.30768 3018
1677.6538 -506.46155 3292
1679.1923 -497.53845 3234
1620.9135 -471.53845 3065
1690.7693 -483.07693 3140
1679.8557 -471.53845 3065
1717.1346 -473.69232 3079
1758.0865 -476.76923 3099
1771.1538 -472.30768 3070
1764.8943 -462.92307 3009
1824.2307 -470.76923 3060
1868.7981 -474.61539 3085
1894.7693 -473.69232 3079
1911.25 -470.46155 3058
1929.2307 -467.69232 3040
1970.0577 -470.46155 3058
1940.6154 -456.61539 2968
2031.5193 -471.07693 3062
2030.6731 -464.15384 3017
2037.8365 -459.23077 2985
2075.5386 -461.23077 2998
2085.4136 -457.07693 2971
2092.6345 -452.46155 2941
155 14 65300
156 14 65300
157 14 65300
158 14 65300
159 14 65300
-440.76923 -82.644234 573
-429.18268 -81.490387 565
-441.75 -84.95192 589
-438.30768 -85.384613 592
-418 -82.5 572
-485.33655 -97.067307 673
-638.25 -129.375 897
7 15 65300
8 15 65300
9 15 65300
10 15 65300
11 15 65300
12 15 65300
-1953.9519 -437.45193 3033
-1953.9807 -444.08655 3079
-1941.25 -447.98077 3106
-1915.0769 -448.84616 3112
-2000.8557 -476.39423 3303
18 15 65300
19 15 65300
20 15 65300
21 15 65300
22 15 65300
23 15 65300
24 15 65300
25 15 65300
26 15 65300
-1613.9519 -456.77884 3167
-1624 -468.46155 3248
-1592.7693 -468.46155 3248
-1582.6923 -474.80768 3292
-1559.0481 -477.25961 3309
-1516.6154 -473.94232 3286
-1494.0577 -476.82693 3306
-1473.7693 -480.57693 3332
-1411.875 -470.625 3263
-1398.2693 -476.68268 3305
-1364.0096 -475.81732 3299
-1320.5769 -471.63461 3270
-1271 -465 3224
-1266.5385 -474.95193 3293
-1225.125 -471.20193 3267
-1167.0385 -460.67307 3194
-1194.3173 -484.18268 3357
44 15 65300
45 15 65300
46 15 65300
47 15 65300
48 15 65300
49 15 65300
50 15 65300
51 15 65300
52 15 65300
-805.3269 -447.40384 3102
-792.75 -457.35577 3171
-759.85577 -455.91345 3161
-721.61536 -451.00961 3127
-669.21155 -436.44232 3026
-546.40387 -372.54807 2583
-544.38464 -388.84616 2696
-530.19232 -397.64423 2757
-530.1731 -418.55768 2902
62 15 65300
63 15 65300
-481.53845 -451.44232 3130
-442.78845 -442.78845 3070
-439.11539 -470.48077 3262
-375 -432.69232 3000
-343.96155 -429.95193 2981
-263.36539 -359.13461 2490
-170.67308 -256.00961 1775
-114.57692 -190.96153 1324
-112.30769 -210.57692 1460
-95.846153 -205.38461 1424
-83.25 -208.125 1443
-75.721153 -227.16347 1575
-58.96154 -221.10577 1533
-42.692307 -213.46153 1480
-27.961538 -209.71153 1454
-13.490385 -202.35577 1403
0 -199.47116 1383
12.653846 -189.80769 1316
27.153847 -203.65384 1412
38.740383 -193.70192 1343
51.76923 -194.13461 1346
64.759613 -194.27884 1347
80.07692 -200.19231 1388
94.83654 -203.22116 1409
107.76923 -202.06731 1401
116.39423 -193.99039 1345
129.71153 -194.56731 1349
139.72116 -190.52884 1321
155.65384 -194.56731 1349
174.75 -201.63461 1398
178.5 -191.25 1326
208.99039 -208.99039 1449
239.84616 -224.85577 1559
234.73077 -207.11539 1436
267.40384 -222.83653 1545
303.08655 -239.27884 1659
275 -206.25 1430
296.625 -211.875 1469
308.21155 -210.14423 1457
364.01923 -237.40384 1646
333.92307 -208.70192 1447
105 15 65300
106 15 65300
107 15 65300
108 15 65300
109 15 65300
110 15 65300
111 15 65300
112 15 65300
113 15 65300
114 15 65300
115 15 65300
116 15 65300
117 15 65300
118 15 65300
119 15 65300
1136.1538 -426.05768 2954
1117.25 -408.75 2834
1170.3462 -417.98077 2898
1156.8654 -403.55768 2798
1166.4231 -397.64423 2757
1144.0385 -381.34616 2644
1177.4231 -383.94232 2662
1123.9327 -358.70193 2487
1161.2307 -362.88461 2516
1177.8846 -360.57693 2500
1210.5769 -363.17307 2518
1348.0673 -396.49039 2749
1533.5 -442.35577 3067
1567.5769 -443.65384 3076
1589.3654 -441.49039 3061
1615.625 -440.625 3055
1662.7693 -445.38461 3088
1681.5 -442.5 3068
1726.0577 -446.39423 3095
1746.1731 -443.94232 3078
1776.3462 -444.08655 3079
1819.4423 -447.40384 3102
1839.7307 -445.09616 3086
1854.8654 -441.63461 3062
1878.1538 -440.19232 3052
1923.75 -443.94232 3078
1905.1154 -432.98077 3002
1961.6827 -439.18268 3045
2001.4231 -441.49039 3061
1982.4231 -430.96155 2988
2023.9423 -433.70193 3007
2034.4231 -429.80768 2980
2074.1538 -432.11539 2996
2049.6155 -421.15384 2920
2072.7114 -420.14423 2913
155 15 65300
156 15 65300
157 15 65300
158 15 65300
159 15 65300
-490.76923 -85.884613 638
-418.54807 -74.17308 551
-456 -81.846153 608
-433.125 -78.75 585
-447.96155 -82.519234 613
-479.56732 -89.519234 665
-647.5 -122.5 910
7 16 65300
8 16 65300
9 16 65300
10 16 65300
11 16 65300
12 16 65300
-1946.8654 -406.80768 3022
-1936.8462 -410.84616 3052
-1938.75 -417.57693 3102
-1947.6923 -426.05768 3165
-1953 -434 3224
18 16 65300
19 16 65300
20 16 65300
21 16 65300
22 16 65300
23 16 65300
24 16 65300
25 16 65300
26 16 65300
-1652.6827 -436.55768 3243
-1637.5 -440.86539 3275
-1594.2404 -437.63461 3251
-1572.1154 -440.19232 3270
-1546.7981 -441.94232 3283
-1513.8462 -441.53845 3280
-1472.8173 -438.71155 3259
-1451.6538 -441.80768 3282
-1424.8557 -443.28845 3293
-1386.4231 -441.13461 3277
-1368.9712 -445.71155 3311
-1327.8462 -442.61539 3288
-1307.6635 -446.51923 3317
-1254.2307 -438.98077 3261
-1229.625 -441.40384 3279
-1202.8462 -443.15384 3292
-1198.2307 -453.38461 3368
44 16 65300
45 16 65300
46 16 65300
47 16 65300
48 16 65300
49 16 65300
50 16 65300
51 16 65300
52 16 65300
-798.83655 -414.21155 3077
-790 -425.38461 3160
-776.44232 -434.80768 3230
-741.69232 -432.65384 3214
-670.09613 -407.88461 3030
-541.53845 -344.61539 2560
-583.35577 -388.90384 2889
-545.76923 -382.03845 2838
61 16 65300
62 16 65300
63 16 65300
-488.15384 -427.13461 3173
-449.42307 -419.46155 3116
-444.76923 -444.76923 3304
-379.125 -408.28845 3033
-356.53845 -415.96155 3090
-297.42307 -378.53845 2812
-179.61539 -251.46153 1868
-118.64423 -184.55769 1371
-108.30769 -189.53847 1408
-97.394234 -194.78847 1447
-88.384613 -206.23077 1532
-70.33654 -196.94231 1463
-59.346153 -207.71153 1543
-43.326923 -202.19231 1502
-28.5 -199.5 1482
-13.057693 -182.80769 1358
0 -189.67308 1409
13.538462 -189.53847 1408
26.807692 -187.65384 1394
38.134617 -177.96153 1322
49.576923 -173.51923 1289
67.5 -189 1404
80.653847 -188.19231 1398
92.278847 -184.55769 1371
103.15385 -180.51923 1341
119.68269 -186.17308 1383
128.36539 -179.71153 1335
146.91347 -186.98077 1389
157.61539 -183.88461 1366
163.75 -176.34616 1310
184.82692 -184.82692 1373
208.70192 -194.78847 1447
238.61539 -208.78847 1551
233.25961 -192.09616 1427
263.42307 -204.88461 1522
289.20193 -213.09616 1583
290 -203 1508
309.75 -206.5 1534
318.78845 -202.86539 1507
360.03845 -219.15384 1628
321.46155 -187.51923 1393
105 16 65300
106 16 65300
107 16 65300
108 16 65300
109 16 65300
110 16 65300
111 16 65300
112 16 65300
113 16 65300
114 16 65300
115 16 65300
116 16 65300
117 16 65300
118 16 65300
119 16 65300
1169.2307 -409.23077 3040
1136.9615 -388.23077 2884
1134 -378 2808
123 16 65300
1167.6923 -371.53845 2760
1189.0385 -369.92307 2748
1175.2115 -357.67307 2657
1167.3173 -347.71155 2583
1189.3846 -346.90384 2577
1177.8846 -336.53845 2500
1217.7885 -340.98077 2533
1362.2885 -373.96155 2778
1550 -417.30768 3100
1596.625 -421.75 3133
1613.7693 -418.38461 3108
1649.4712 -419.86539 3119
1675.6923 -418.92307 3112
1678.2115 -412.19232 3062
1714.3462 -413.80768 3074
1773.4038 -420.80768 3126
1784.4231 -416.36539 3093
1788.3557 -410.44232 3049
1830.1923 -413.26923 3070
1857.8943 -412.86539 3067
1892.3077 -413.94232 3075
1950 -420 3120
1945.7307 -412.73077 3066
1997.1154 -417.30768 3100
1975.9231 -406.80768 3022
2014.9327 -408.82693 3037
2051.5386 -410.30768 3048
2051.4905 -404.51923 3005
2077.6155 -403.98077 3001
2100.8557 -402.90384 2993
2086.9424 -394.82693 2933
155 16 65300
156 16 65300
157 16 65300
158 16 65300
159 16 65300
-474.61539 -77.125 617
-435.25961 -71.625 573
-447.75 -74.625 597
-424.98077 -71.75 574
-445.03845 -76.125 609
-454.32693 -78.75 630
-556.4231 -97.75 782
7 17 65300
8 17 65300
9 17 65300
10 17 65300
11 17 65300
12 17 65300
-1895.9712 -367.875 2943
-1985.7115 -391.125 3129
-1933.75 -386.75 3094
-1928.6154 -391.75 3134
-1883.3365 -388.625 3109
-1818.8654 -381.375 3051
19 17 65300
20 17 65300
21 17 65300
22 17 65300
23 17 65300
24 17 65300
25 17 65300
26 17 65300
-1549.7404 -380.125 3041
-1621 -405.25 3242
-1596.2019 -406.875 3255
-1565.3846 -407 3256
-1548.6827 -410.875 3287
-1519.3846 -411.5 3292
-1474.625 -407.875 3263
-1483.9423 -419.375 3355
-1432.2115 -413.75 3310
-1397 -412.75 3302
-1358.6346 -410.75 3286
-1353.6923 -419 3352
-1290.7115 -409.25 3274
-1277.3077 -415.125 3321
-1234.125 -411.375 3291
-1187.5 -406.25 3250
-1196.0962 -420.25 3362
44 17 65300
45 17 65300
46 17 65300
47 17 65300
48 17 65300
49 17 65300
50 17 65300
51 17 65300
52 17 65300
-814.93268 -392.375 3139
-803.25 -401.625 3213
-763.22113 -396.875 3175
-730.38464 -395.625 3165
-678.27887 -383.375 3067
-548.30768 -324 2592
-563.76923 -349 2792
-569.23077 -370 2960
61 17 65300
62 17 65300
63 17 65300
-494.46155 -401.75 3214
-442.06732 -383.125 3065
-442.48077 -410.875 3287
-374.75 -374.75 2998
-352.26923 -381.625 3053
-312.23077 -369 2952
-189.42308 -246.25 1970
-118.38461 -171 1368
-117.53846 -191 1528
-96.04808 -178.375 1427
-82.153847 -178 1424
-70.33654 -182.875 1463
-60.307693 -196 1568
-40.615383 -176 1408
-29.865385 -194.125 1553
-12.817307 -166.625 1333
0 -170.875 1367
13.076923 -170 1360
25.365385 -164.875 1319
38.509617 -166.875 1335
51.307693 -166.75 1334
66.105766 -171.875 1375
80.596153 -174.625 1397
89.317307 -165.875 1327
106.53846 -173.125 1385
116.91346 -168.875 1351
130.28847 -169.375 1355
139.08653 -164.375 1315
156.11539 -169.125 1353
177.25 -177.25 1418
177.55769 -164.875 1319
212.45192 -184.125 1473
222 -180.375 1443
233.25961 -178.375 1427
243.69231 -176 1408
284.45193 -194.625 1557
293.84616 -191 1528
295.21155 -182.75 1462
302.07693 -178.5 1428
362.69232 -205 1640
364.15384 -197.25 1578
105 17 65300
106 17 65300
107 17 65300
108 17 65300
109 17 65300
110 17 65300
111 17 65300
112 17 65300
113 17 65300
114 17 65300
115 17 65300
116 17 65300
117 17 65300
118 17 65300
119 17 65300
1129.6154 -367.125 2937
1134.5962 -359.75 2878
1167.1154 -361.25 2890
1165.9615 -352.5 2820
1198.1538 -354 2832
1162.6443 -335.875 2687
1178.3077 -333 2664
1184.4904 -327.625 2621
1192.1538 -322.875 2583
1161.8654 -308.25 2466
1206.7307 -313.75 2510
1376.0193 -350.75 2806
1537 -384.25 3074
1580.8269 -387.75 3102
1607.0193 -386.875 3095
1630.4327 -385.375 3083
1696.6923 -393.875 3151
1696.8462 -387 3096
1743.3462 -390.75 3126
1763.1923 -388.5 3108
1793.0769 -388.5 3108
1794.8077 -382.5 3060
1806.3462 -378.75 3030
1882.125 -388.375 3107
1886.7693 -383.25 3066
1941.875 -388.375 3107
1952.7115 -384.625 3077
1966.8365 -381.625 3053
1947.8077 -372.375 2979
1997.6827 -376.375 3011
1980.1923 -367.75 2942
2054.2212 -376.125 3009
2040.2307 -368.375 2947
2074.8845 -369.5 2956
2042.1154 -358.75 2870
155 17 65300
156 17 65300
157 17 65300
158 17 65300
159 17 65300
-463.07693 -69.46154 602
-413.23077 -62.76923 544
-428.25 -65.884613 571
-435.34616 -67.846153 588
-434.07693 -68.53846 594
-472.35577 -75.57692 655
-571.36536 -92.653847 803
7 18 65300
8 18 65300
9 18 65300
10 18 65300
11 18 65300
12 18 65300
-1910.7885 -342.23077 2966
-1961.5962 -356.65384 3091
-1960 -361.84616 3136
-1954.4615 -366.46155 3176
-1972.9904 -375.80768 3257
-1898.1538 -367.38461 3184
19 18 65300
20 18 65300
21 18 65300
22 18 65300
23 18 65300
24 18 65300
25 18 65300
26 18 65300
-1635.8654 -370.38461 3210
-1625 -375 3250
-1601.5962 -376.84616 3266
-1592.7885 -382.26923 3313
-1537.375 -376.5 3263
-1522.6154 -380.65384 3299
-1494.0577 -381.46155 3306
-1453.4231 -379.15384 3286
-1434.375 -382.5 3315
-1391.5 -379.5 3289
-1359.0481 -379.26923 3287
-1306.0385 -373.15384 3234
-1287.5577 -376.84616 3266
-1271.9231 -381.57693 3307
-1233.75 -379.61539 3290
-1176.1731 -371.42307 3219
-1192.5385 -386.76923 3352
44 18 65300
45 18 65300
46 18 65300
47 18 65300
48 18 65300
49 18 65300
50 18 65300
51 18 65300
52 18 65300
-807.9231 -359.07693 3112
-798 -368.30768 3192
-762.01923 -365.76923 3170
-731.0769 -365.53845 3168
-673.19232 -351.23077 3044
-550 -300 2600
-579.31732 -331.03845 2869
-536.73077 -322.03845 2791
-536.93268 -339.11539 2939
62 18 65300
63 18 65300
-493.53845 -370.15384 3208
-443.50961 -354.80768 3075
-437.76923 -375.23077 3252
-374.5 -345.69232 2996
-342.92307 -342.92307 2972
-302.92307 -330.46155 2864
-196.05769 -235.26923 2039
-131.88461 -175.84616 1524
-119.30769 -178.96153 1551
-99.884613 -171.23077 1484
-88.21154 -176.42308 1529
-74.08654 -177.80769 1541
-55.73077 -167.19231 1449
-43.298077 -173.19231 1501
-28 -168 1456
-13.317307 -159.80769 1385
0 -154.73077 1341
12.971154 -155.65384 1349
26.826923 -160.96153 1395
36.576923 -146.30769 1268
50.5 -151.5 1313
66.92308 -160.61539 1392
80.192307 -160.38461 1390
89.58654 -153.57692 1331
101.76923 -152.65384 1323
116.56731 -155.42308 1347
129.51923 -155.42308 1347
142.89423 -155.88461 1351
154.73077 -154.73077 1341
163.25 -150.69231 1306
178.90384 -153.34616 1329
210.43269 -168.34616 1459
212.15384 -159.11539 1379
238.98077 -168.69231 1462
240.75 -160.5 1391
291.57693 -184.15384 1596
295.57693 -177.34616 1537
284.50961 -162.57692 1409
321.75 -175.5 1521
371.98077 -194.07692 1682
395.30768 -197.65384 1713
105 18 65300
106 18 65300
107 18 65300
108 18 65300
109 18 65300
110 18 65300
111 18 65300
112 18 65300
113 18 65300
114 18 65300
115 18 65300
116 18 65300
117 18 65300
118 18 65300
119 18 65300
1122.3077 -336.69232 2918
1134.9904 -332.19232 2879
1177.6154 -336.46155 2916
1159.7596 -323.65384 2805
1189.6923 -324.46155 2812
1148.7981 -306.34616 2655
1208.3846 -315.23077 2732
1163.25 -297 2574
1188.4615 -297.11539 2575
1192.4904 -292.03845 2531
1173.5577 -281.65384 2441
1402.5 -330 2860
1556.5 -359.19232 3113
1566.5577 -354.69232 3074
1596.6346 -354.80768 3075
1645.2404 -358.96155 3111
1685.9231 -361.26923 3131
1707.8077 -359.53845 3116
1722.7115 -356.42307 3089
1766.5962 -359.30768 3114
1794.8077 -358.96155 3111
1819.4423 -357.92307 3102
1820.0577 -352.26923 3053
1845.7788 -351.57693 3047
1910.1538 -358.15384 3104
1908.75 -352.38461 3054
1971.75 -358.5 3107
1998.4038 -357.92307 3102
2021.6923 -356.76923 3092
2016.2596 -350.65384 3039
2017.8846 -345.92307 2998
2060.3655 -348.23077 3018
2044.3846 -340.73077 2953
2086.8174 -343.03845 2973
2086.2307 -338.30768 2932
155 18 65300
156 18 65300
157 18 65300
158 18 65300
159 18 65300
-443.84616 -61.028847 577
-439.81732 -61.240383 579
-413.25 -58.278847 551
-464.22116 -66.317307 627
-473.53845 -68.53846 648
-462.98077 -67.903847 642
-580.61536 -86.307693 816
7 19 65300
8 19 65300
9 19 65300
10 19 65300
11 19 65300
12 19 65300
-1943 -319 3016
-1980 -330 3120
-1913.75 -323.86539 3062
-1955.6923 -336.13461 3178
-1928.7693 -336.76923 3184
-1920.2115 -340.68268 3221
-1917.3943 -345.75961 3269
20 19 65300
21 19 65300
22 19 65300
23 19 65300
24 19 65300
25 19 65300
-1692.1731 -344.70193 3259
-1668.4807 -346.28845 3274
-1641.5 -347.24039 3283
-1605.0288 -346.18268 3273
-1572.1154 -345.86539 3270
-1559.0481 -349.99039 3309
-1505.0769 -344.91345 3261
-1481.4038 -346.71155 3278
-1469.3462 -351.36539 3322
-1429.1827 -349.35577 3303
-1380.9231 -345.23077 3264
-1375.5865 -351.89423 3327
-1352.8846 -354.32693 3350
-1308.0577 -350.94232 3318
-1261.9231 -347.02884 3281
-1230.375 -347.02884 3281
-1198.0962 -346.81732 3279
-1168.7019 -347.45193 3285
44 19 65300
45 19 65300
46 19 65300
47 19 65300
48 19 65300
49 19 65300
50 19 65300
51 19 65300
52 19 65300
-817.00964 -332.85577 3147
-795 -336.34616 3180
-769.47113 -338.56732 3201
-734.0769 -336.45193 3181
-659.7019 -315.50961 2983
-543.44232 -271.72116 2569
-566.59613 -296.78845 2806
-565.38464 -310.96155 2940
-546.7981 -316.56732 2993
-514.38464 -314.34616 2972
63 19 65300
-500 -343.75 3250
-445.38461 -326.61539 3088
-430.76923 -338.46155 3200
-349.625 -295.83655 2797
-255.11539 -233.85577 2211
-161.19231 -161.19231 1524
-137.88461 -151.67308 1434
-114.40385 -139.82692 1322
-111.38461 -153.15384 1448
-95.644234 -150.29808 1421
-83.307693 -152.73077 1444
-67.83654 -149.24039 1411
-54.384617 -149.55769 1414
-43.21154 -158.44231 1498
-27.48077 -151.14423 1429
-13.432693 -147.75961 1397
0 -144.79808 1369
13.682693 -150.50961 1423
26.5 -145.75 1378
37.125 -136.125 1287
51.576923 -141.83653 1341
67.980766 -149.55769 1414
79.269234 -145.32692 1374
94.028847 -147.75961 1397
103.23077 -141.94231 1342
115.18269 -140.77884 1331
133.65384 -147.01923 1390
141.83653 -141.83653 1341
154.38461 -141.51923 1338
173.625 -146.91347 1389
185.90384 -146.06731 1381
202.78847 -148.71153 1406
207.84616 -142.89423 1351
255.65384 -165.42308 1564
240.05769 -146.70192 1387
278.24039 -161.08653 1523
297.69232 -163.73077 1548
309.95193 -162.35577 1535
324.07693 -162.03847 1532
392.76923 -187.84616 1776
517.84613 -237.34616 2244
674.51923 -296.78845 2806
721 -305.03845 2884
733.15387 -298.69232 2824
774.03845 -304.08655 2875
804.19232 -305.03845 2884
828.46155 -303.76923 2872
857.56732 -304.29807 2877
883.0769 -303.55768 2870
890.0481 -296.68268 2805
930.09613 -300.91345 2845
959.13464 -301.44232 2850
990.34613 -302.60577 2861
1033.8654 -307.36539 2906
1050.1154 -303.98077 2874
1075.125 -303.24039 2867
1116.1538 -306.94232 2902
1155.0962 -309.90384 2930
1158.2307 -303.34616 2868
1178.7788 -301.54807 2851
1194.7693 -298.69232 2824
1155.7212 -282.50961 2671
1165.4807 -278.70193 2635
1173.1923 -274.57693 2596
1208.3077 -276.90384 2618
1184.4807 -265.90384 2514
1212.5 -266.75 2522
1395.1443 -300.91345 2845
1543 -326.40384 3086
1586.9423 -329.36539 3114
1615.3269 -329.04807 3111
1640.4807 -328.09616 3102
1650.9231 -324.28845 3066
1709.4519 -329.89423 3119
1732.75 -328.625 3107
1773.9712 -330.74039 3127
1812.1154 -332.22116 3141
1797.1538 -324.07693 3064
1836.1538 -325.76923 3080
1838.5096 -321.00961 3035
1903.3846 -327.14423 3093
1925.625 -325.875 3081
1942.5577 -323.75961 3061
2002.2693 -328.73077 3108
1958.2693 -316.77884 2995
2024.2212 -322.70193 3051
2039.4231 -320.48077 3030
2056.2693 -318.57693 3012
2101.8462 -321.11539 3036
2071.375 -312.125 2951
2051.3655 -304.93268 2883
155 19 65300
156 19 65300
157 19 65300
158 19 65300
159 19 65300
-486.15384 -60.76923 632
-454.25 -57.5 598
-453 -58.076923 604
-429.42307 -55.76923 580
-456.73077 -60.096153 625
-449.27884 -59.903847 623
-582.03845 -78.653847 818
7 20 65300
8 20 65300
9 20 65300
10 20 65300
11 20 65300
12 20 65300
-1951.375 -291.25 3029
-1971.1154 -298.65384 3106
-1927.5 -296.53845 3084
-1999.3846 -312.40384 3249
-1914.8365 -303.94232 3161
-1935.7115 -312.21155 3247
-1934.9904 -317.21155 3299
-1935 -322.5 3354
-1925.4423 -326.34616 3394
-1874.9615 -323.26923 3362
-1904.0193 -334.03845 3474
-1893.2307 -338.07693 3516
-1728.7981 -314.32693 3269
-1719.1731 -318.36539 3311
-1681.7307 -317.30768 3300
-1674.5 -322.01923 3349
-1616.3077 -316.92307 3296
-1610.5769 -322.11539 3350
-1546.3269 -315.57693 3282
-1515.2307 -315.67307 3283
-1498.5769 -318.84616 3316
-1441.0385 -313.26923 3258
-1422.2596 -316.05768 3287
-1403.3462 -318.94232 3317
-1361.1154 -316.53845 3292
-1329.4615 -316.53845 3292
-1301.75 -317.5 3302
-1235.3846 -308.84616 3212
-1230.75 -315.57693 3282
-1227.6923 -323.07693 3360
-1166.5673 -315.28845 3279
-1169.3077 -324.80768 3378
-1143.8943 -326.82693 3399
-1110.5577 -326.63461 3397
-1117.2404 -338.55768 3521
-1068 -333.75 3471
49 20 65300
50 20 65300
51 20 65300
-934.76923 -333.84616 3472
-823.24036 -304.90384 3171
-789.5 -303.65384 3158
-768.75 -307.5 3198
-738.46155 -307.69232 3200
-667.88464 -290.38461 3020
-559.30768 -254.23077 2644
-585.77887 -278.94232 2901
-557.5 -278.75 2899
-508.06732 -267.40384 2781
-512.65387 -284.80768 2962
-488.25961 -287.21155 2987
-474.76923 -296.73077 3086
-447.40384 -298.26923 3102
-434.94232 -310.67307 3231
-340.625 -262.01923 2725
-213 -177.5 1846
-145.43269 -132.21153 1375
-153.65384 -153.65384 1598
-126.51923 -140.57692 1462
-113.53846 -141.92308 1476
-93.692307 -133.84616 1392
-79.730766 -132.88461 1382
-75.096153 -150.19231 1562
-58 -145 1508
-40.78846 -135.96153 1414
-26.98077 -134.90384 1403
-14.230769 -142.30769 1480
0 -134.23077 1396
13.182693 -131.82692 1371
26.884615 -134.42308 1398
39.778847 -132.59616 1379
51.615383 -129.03847 1342
67.83654 -135.67308 1411
83.134613 -138.55769 1441
90.32692 -129.03847 1342
105 -131.25 1365
119.07692 -132.30769 1376
137.11539 -137.11539 1426
140.14423 -127.40385 1325
154.03847 -128.36539 1335
171.375 -131.82692 1371
184.96153 -132.11539 1374
208.84616 -139.23077 1448
211.07692 -131.92308 1372
250.75 -147.5 1534
264.63461 -147.01923 1529
282.99039 -148.94231 1549
300.38461 -150.19231 1562
313.58655 -149.32692 1553
305.67307 -138.94231 1445
418.64423 -182.01923 1893
600 -250 2600
719.9519 -287.98077 2995
770.5 -296.34616 3082
783.77887 -290.28845 3019
827.0769 -295.38461 3072
862.19232 -297.30768 3092
885.86536 -295.28845 3071
911.51923 -294.03845 3058
932.61536 -291.44232 3031
972.86536 -294.80768 3066
1001.6923 -294.61539 3064
1035.8654 -295.96155 3078
1020.8077 -283.55768 2949
1121.7404 -303.17307 3153
1132.6923 -298.07693 3100
1123.5 -288.07693 2996
1109.6154 -277.40384 2885
1172.4423 -285.96155 2974
1161.0577 -276.44232 2875
1169.6827 -272.01923 2829
1199.4231 -272.59616 2835
1194.6635 -265.48077 2761
1221.6538 -265.57693 2762
1160.9904 -247.01923 2569
1190.3077 -247.98077 2579
1177.8846 -240.38461 2500
1186.0577 -237.21153 2467
1406.4231 -275.76923 2868
1562.5 -300.48077 3125
1594.0769 -300.76923 3128
1626.2307 -301.15384 3132
1663.75 -302.5 3146
1676.7693 -299.42307 3114
1702.3269 -298.65384 3106
1732.75 -298.75 3107
1763.7596 -298.94232 3109
1809.8077 -301.63461 3137
1839.9712 -301.63461 3137
1850.4615 -298.46155 3104
1854.2596 -294.32693 3061
1883.6923 -294.32693 3061
1924.375 -296.05768 3079
1901.9423 -288.17307 2997
1982.2981 -295.86539 3077
1987.6923 -292.30768 3040
2033.5096 -294.71155 3065
2032.0193 -290.28845 3019
2069.2405 -291.44232 3031
2106.6924 -292.59616 3043
2065.7595 -282.98077 2943
2059.9038 -278.36539 2895
155 20 65300
156 20 65300
157 20 65300
158 20 65300
159 20 65300
-433.07693 -48.721153 563
-435.25961 -49.58654 573
-450.75 -52.009617 601
-450.15384 -52.615383 608
-474.26923 -56.16346 649
-485.33655 -58.240383 673
-550.73077 -66.980766 774
7 21 65300
8 21 65300
9 21 65300
10 21 65300
11 21 65300
12 21 65300
-1924.3173 -258.49039 2987
-1954.6154 -266.53845 3080
-1931.25 -267.40384 3090
-1944.6154 -273.46155 3160
-1908.7788 -272.68268 3151
-1916.6346 -278.22116 3215
-1858.7404 -274.24039 3169
-1887.6923 -283.15384 3272
-1840.9135 -280.81732 3245
-1816.9615 -281.94232 3258
-1795.5 -283.5 3276
-1760.7693 -282.98077 3270
-1754.1827 -287.04807 3317
-1708.7885 -284.79807 3291
-1691.4135 -287.22116 3319
-1645.5 -284.79807 3291
-1620.7212 -286.00961 3305
-1588.9423 -286.00961 3305
-1538.3173 -282.54807 3265
-1507.8462 -282.72116 3267
-1505.3557 -288.25961 3331
-1457.4038 -285.14423 3295
-1419.2307 -283.84616 3280
-1398.6923 -286.09616 3306
-1393.3654 -291.63461 3370
-1322.5962 -283.41345 3275
-1309.6346 -287.48077 3322
-1264.6154 -284.53845 3288
-1228.875 -283.58655 3277
-1201.3846 -284.53845 3288
-1165.1443 -283.41345 3275
-1104.9231 -276.23077 3192
-1070.1923 -275.19232 3180
-1047.7885 -277.35577 3205
-1010.625 -275.625 3185
-972 -273.375 3159
-952.65387 -276.57693 3196
-907.78845 -272.33655 3147
-876.97113 -272.16345 3145
-848.0769 -272.59616 3150
-820.90387 -273.63461 3162
-799 -276.57693 3196
-763.22113 -274.75961 3175
-744 -279 3224
-663.68268 -259.70193 3001
-552.96155 -226.21153 2614
-565.58655 -242.39423 2801
-549.23077 -247.15384 2856
-544.78845 -258.05768 2982
-515.0769 -257.53845 2976
-517.02887 -273.72116 3163
-487.38461 -274.15384 3168
-462.40384 -277.44232 3206
-440.46155 -283.15384 3272
-355.75 -246.28847 2846
-248.42308 -186.31731 2153
-165.21153 -135.17308 1562
-152.01923 -136.81731 1581
-122.71154 -122.71154 1418
-110.69231 -124.52885 1439
-96.317307 -123.83654 1431
-81.634613 -122.45192 1415
-69.71154 -125.48077 1450
-55.346153 -124.52885 1439
-40.21154 -120.63461 1394
-27.826923 -125.22115 1447
-12.740385 -114.66346 1325
0 -117.17308 1354
13.653846 -122.88461 1420
26.153847 -117.69231 1360
39.923077 -119.76923 1384
53.384617 -120.11539 1388
66.58654 -119.85577 1385
83.596153 -125.39423 1449
93.355766 -120.02885 1387
105.61539 -118.81731 1373
119.85577 -119.85577 1385
134.23077 -120.80769 1396
142.68269 -116.74039 1349
154.96153 -116.22115 1343
175.375 -121.41346 1403
187.92308 -120.80769 1396
198.17308 -118.90385 1374
219.84616 -123.66346 1429
240.125 -127.125 1469
266.88461 -133.44231 1542
252.66347 -119.68269 1383
263.46155 -118.55769 1370
313.99039 -134.56731 1555
319.21155 -130.58653 1509
393.43268 -153.95192 1779
433.84616 -162.69231 1880
508.65384 -183.11539 2116
683.75 -236.68269 2735
806.88464 -268.96155 3108
841.88464 -270.60577 3127
871.6731 -270.51923 3126
898.84613 -269.65384 3116
925.52887 -268.70193 3105
948 -266.625 3081
965.88464 -263.42307 3044
1013.7885 -268.35577 3101
1046.6346 -269.13461 3110
1068.9231 -267.23077 3088
1116.7596 -271.64423 3139
1118.0769 -264.80768 3060
1154.25 -266.36539 3078
1116.5385 -251.22116 2903
1169.2885 -256.67307 2966
1170.75 -250.875 2899
1193.6635 -249.83653 2887
1191.8077 -243.77884 2817
1211.5385 -242.30769 2800
1182.2885 -231.31731 2673
1202.5673 -230.27884 2661
1215.6923 -227.94231 2634
1212.2788 -222.66347 2573
1205.7693 -217.03847 2508
1384.3557 -244.29808 2823
1550.5 -268.35577 3101
1603.25 -272.25 3146
1627.2693 -271.21155 3134
1658.9904 -271.47116 3137
1683.2307 -270.51923 3126
1706.7115 -269.48077 3114
1731.6346 -268.70193 3105
1770.5673 -270.08655 3121
1806.3462 -270.95193 3131
1809.4712 -266.97116 3085
1833.1731 -266.10577 3075
1879.7019 -268.52884 3103
1893.5385 -266.27884 3077
1940.625 -268.70193 3105
1917.8077 -261.51923 3022
1990.6731 -267.40384 3090
1970.6923 -260.82693 3014
2037.4904 -265.75961 3071
2054.9038 -264.20193 3053
2065.1443 -261.77884 3025
2018.7693 -252.34616 2916
2135.25 -263.25 3042
2097.6155 -255.11539 2948
155 21 65300
156 21 65300
157 21 65300
158 21 65300
159 21 65300
-440 -44 572
-400.31732 -40.53846 527
-413.25 -42.384617 551
-473.84616 -49.23077 640
-458.19232 -48.23077 627
-446.39423 -47.615383 619
-543.61536 -58.76923 764
-1874.1346 -205.38461 2670
8 22 65300
9 22 65300
10 22 65300
11 22 65300
12 22 65300
-1942.3557 -231.92308 3015
-1950.1731 -236.38461 3073
-1950 -240 3120
-1941.5385 -242.69231 3155
-1909.9904 -242.53847 3153
-1930.3462 -249.07692 3238
-1923.8462 -252.30769 3280
-1922.3077 -256.30768 3332
-1856.7981 -251.76923 3273
-1832.0193 -252.69231 3285
-1790.0193 -251.23077 3266
-1772.0769 -253.15384 3291
-1737.2596 -252.69231 3285
-1706.7115 -252.84616 3287
-1693.4519 -255.61539 3323
-1638 -252 3276
-1630.0385 -255.69231 3324
-1585.5769 -253.69231 3298
-1543.0288 -251.92308 3275
-1515.6923 -252.61539 3284
-1484.1154 -252.61539 3284
-1456.0769 -253.23077 3292
-1437.4038 -255.53847 3322
-1393.1923 -253.30769 3293
-1372.6923 -255.38461 3320
-1352.0769 -257.53845 3348
-1312.7885 -256.15384 3330
-1267.6923 -253.53847 3296
-1224.75 -251.23077 3266
-1203.9423 -253.46153 3295
-1156.6057 -250.07692 3251
-1121.8846 -249.30769 3241
-1102.1635 -251.92308 3275
-1070.3462 -251.84616 3274
-1041.0865 -252.38461 3281
-996.30768 -249.07692 3238
-977.99036 -252.38461 3281
-938.0769 -250.15384 3252
-890.63464 -245.69231 3194
-874.19232 -249.76923 3247
-833.10577 -246.84616 3209
-809.75 -249.15384 3239
-777.16345 -248.69231 3233
-736.84613 -245.61539 3193
-672.08655 -233.76923 3039
-540.26923 -196.46153 2554
-579.72113 -220.84616 2871
-570.76923 -228.30769 2968
-525.97113 -221.46153 2879
-519.05768 -230.69231 2999
63 22 65300
-474.46155 -237.23077 3084
-450.43268 -240.23077 3123
-453.11539 -258.92307 3366
-367.5 -226.15384 2940
-269.53845 -179.69231 2336
-157.49039 -114.53846 1489
-147.40384 -117.92308 1533
-122.625 -109 1417
-112.30769 -112.30769 1460
-95.71154 -109.38461 1422
-82.615387 -110.15385 1432
-68.70192 -109.92308 1429
-57.96154 -115.92308 1507
-41.365383 -110.30769 1434
-27.076923 -108.30769 1408
-12.692307 -101.53846 1320
0 -101.38461 1318
13.317307 -106.53846 1385
26.365385 -105.46154 1371
40.125 -107 1391
51.96154 -103.92308 1351
67.83654 -108.53846 1411
81.115387 -108.15385 1406
92.346153 -105.53846 1372
106.92308 -106.92308 1390
119.07692 -105.84615 1376
135.76923 -108.61539 1412
144.375 -105 1365
156.46153 -104.30769 1356
190.875 -117.46154 1527
192.23077 -109.84615 1428
205.24039 -109.46154 1423
213.07692 -106.53846 1385
230.97116 -108.69231 1413
262.90384 -116.84615 1519
282.80768 -119.07692 1548
293.07693 -117.23077 1524
304.90384 -116.15385 1510
297.63461 -108.23077 1407
352.29807 -122.53846 1593
373.61539 -124.53846 1619
407.45193 -130.38461 1695
500.5 -154 2002
776.50964 -230.07692 2991
841.0769 -240.30769 3124
863.86536 -238.30769 3098
913.26923 -243.53847 3166
937.15387 -241.84616 3144
965.23077 -241.30769 3137
970.3269 -235.23077 3058
1020.6539 -240.15384 3122
1049.6635 -239.92308 3119
1061.3077 -235.84616 3066
1117.4712 -241.61539 3141
1122.4615 -236.30769 3072
1140.75 -234 3042
1094.2307 -218.84616 2845
1164.1635 -227.15384 2953
1179.2307 -224.61539 2920
1213.5096 -225.76923 2935
