# .PCD v0.7 - Point Cloud Data file format
VERSION 0.7
FIELDS x y z
SIZE 4 4 4
TYPE F F F
COUNT 1 1 1
WIDTH 2139
HEIGHT 1
VIEWPOINT 0 0 0 1 0 0 0
POINTS 2139
DATA ascii
1581.4615 -599.03845 2492
1763.2596 -657.93268 2737
1718.3077 -631.73077 2628
1701.1154 -616.34613 2564
1810.5769 -646.63464 2690
1728.5769 -608.65387 2532
152 5 65300
153 5 65300
154 5 65300
155 5 65300
156 5 65300
157 5 65300
158 5 65300
159 5 65300
-413.07693 -123.92308 537
-404.11539 -122.76923 532
-419.25 -129 559
-412.39423 -128.53847 557
-409.23077 -129.23077 560
-934.61536 -299.07693 1296
6 6 65300
7 6 65300
8 6 65300
9 6 65300
10 6 65300
-1919.3943 -667.61536 2893
-1915.7693 -676.15387 2930
-1873.4231 -671.0769 2908
-1887.9807 -686.53845 2975
-1806.875 -667.15387 2891
-1484.3077 -556.61536 2412
-1402.9615 -534.46155 2316
-1366.9807 -529.15387 2293
-1349.0385 -530.76923 2300
-1307.8846 -523.15387 2267
-1292.3269 -525.69232 2278
-1280.4615 -529.84613 2296
-1262.2212 -531.46155 2303
-1237.9231 -530.53845 2299
-1220.0481 -532.38464 2307
-1221.75 -543 2353
-1190.9712 -539.30768 2337
-1212 -559.38464 2424
-1303.9327 -613.61536 2659
-1526.4423 -732.69232 3175
-1470.9423 -720.46155 3122
-1466.3077 -733.15387 3177
-1463.7788 -747.46155 3239
-1399.4615 -730.15387 3164
-1352.5962 -721.38464 3126
-1292.0769 -704.76923 3054
-1285.8654 -717.69232 3110
-1185.6923 -677.53845 2936
39 6 65300
-1142.6923 -685.61536 2971
-1101.75 -678 2938
42 6 65300
43 6 65300
44 6 65300
45 6 65300
46 6 65300
47 6 65300
48 6 65300
49 6 65300
50 6 65300
51 6 65300
52 6 65300
-672.66345 -597.9231 2591
-722.25 -666.69232 2889
-709.85577 -681.46155 2953
-679.38464 -679.38464 2944
-593.35577 -619.15387 2683
-478.07693 -521.53845 2260
-511.875 -585 2535
-467.88461 -561.46155 2433
-437.91345 -553.15387 2397
-455.53845 -607.38464 2632
-434.48077 -613.38464 2658
-418.92307 -628.38464 2723
-405 -648 2808
-348.51923 -597.46155 2589
-295.75 -546 2366
-289.15384 -578.30768 2506
-260.61539 -568.61536 2464
-233.17308 -559.61536 2425
-197.48077 -526.61536 2282
-172.84616 -518.53845 2247
-139.125 -477 2067
-117.75 -471 2041
-79.903847 -383.53845 1662
-66.03846 -396.23077 1717
-21.201923 -169.61539 735
-12.442307 -149.30769 647
-3.8076923 -91.384613 396
0 -98.07692 425
3.7019231 -88.846153 385
7.5384617 -90.46154 392
11.480769 -91.846153 398
16.307692 -97.846153 424
17.403847 -83.53846 362
27.75 -111 481
23.961538 -82.153847 356
23.692308 -71.07692 308
35.48077 -94.615387 410
39.23077 -94.153847 408
46.53846 -101.53846 440
42.346153 -84.692307 367
45.75 -84.46154 366
48.73077 -83.53846 362
56.682693 -90.692307 393
54.153847 -81.230766 352
57.701923 -81.46154 353
61.26923 -81.692307 354
67.778847 -85.615387 371
70.384613 -84.46154 366
74.509613 -85.153847 369
74.46154 -81.230766 352
75.855766 -79.153847 343
86.769234 -86.769234 376
87.980766 -84.46154 366
92.25 -85.153847 369
91.644234 -81.46154 353
100.42308 -86.07692 373
104.28846 -86.307693 374
112.21154 -89.769234 389
111.48077 -86.307693 374
101.23077 -75.92308 329
110.74039 -80.53846 349
116.71154 -82.384613 357
168.26923 -115.38461 500
109.73077 -73.153847 317
143.375 -93 403
110.34615 -69.692307 302
130.5 -80.307693 348
98.07692 -58.846153 255
249.94231 -146.30769 634
122 6 65300
123 6 65300
124 6 65300
125 6 65300
126 6 65300
127 6 65300
128 6 65300
129 6 65300
1083.6538 -520.15387 2254
131 6 65300
132 6 65300
133 6 65300
134 6 65300
1512.5 -660 2860
1576.6154 -675.69232 2928
1557.6346 -655.84613 2842
1581.6154 -654.46155 2836
1653.1346 -672.46155 2914
1633.8462 -653.53845 2832
1626.4712 -639.9231 2773
1685.3269 -652.38464 2827
1734.3173 -660.69232 2863
1670.1538 -626.30768 2714
1579.375 -583.15387 2527
1546.5577 -562.38464 2437
1757.4615 -629.53845 2728
1663.3846 -587.0769 2544
149 6 65300
150 6 65300
1764.7596 -596.53845 2585
1827.6923 -609.23077 2640
153 6 65300
154 6 65300
155 6 65300
156 6 65300
157 6 65300
158 6 65300
159 6 65300
-406.92307 -116.99039 529
-420.06732 -122.29808 553
-405 -119.42308 540
-428.68268 -128.04808 579
-352.96155 -106.81731 483
-853.125 -261.625 1183
-1605.2307 -498.92307 2256
7 7 65300
8 7 65300
9 7 65300
10 7 65300
11 7 65300
-1900.0769 -642.6731 2906
-1902.4135 -653.06732 2953
-1938.75 -675.625 3055
-1853.75 -655.94232 2966
-1740.3077 -625.4231 2828
-1512 -552 2496
-1378.9038 -511.52884 2313
-1366.0481 -515.06732 2329
-1328.6538 -509.31732 2303
-1307.0769 -509.53845 2304
-1308.3462 -518.8269 2346
-1255.6443 -506.66345 2291
-1277.7693 -524.7981 2373
-1241.7307 -519.26923 2348
-1239.9231 -528.11536 2388
-1282.7019 -556.64423 2517
-1384.5 -612.375 2769
-1444.6731 -651.51923 2946
-1545.1923 -710.78845 3214
-1500.1538 -704.15387 3184
-1484.3077 -711.23077 3216
-1460.6154 -714.76923 3232
-1427.7693 -713.88464 3228
-1417.9327 -724.72113 3277
-1304.7693 -682.03845 3084
-1304.0577 -697.51923 3154
-1235.3654 -676.50964 3059
-1187.8173 -666.33655 3013
-1150.3846 -661.47113 2991
-1089.375 -642.4519 2905
-1043.9038 -631.83655 2857
43 7 65300
44 7 65300
45 7 65300
46 7 65300
47 7 65300
48 7 65300
49 7 65300
50 7 65300
51 7 65300
52 7 65300
-686.94232 -585.1731 2646
-728 -644 2912
-712.01923 -655.05768 2962
-679.15387 -650.85577 2943
-579.4231 -579.4231 2620
-472.78845 -494.27884 2235
-480.17307 -525.90387 2378
-456.53845 -525.01923 2374
-441.93268 -534.97113 2419
-420.75 -537.625 2431
-414.375 -560.625 2535
-395.38461 -568.36536 2570
-358.41345 -549.56732 2485
-338.55768 -556.2019 2515
-284.375 -503.125 2275
-261 -500.25 2262
-220.63461 -461.32693 2086
-198.07692 -455.57693 2060
-157.24039 -401.83655 1817
-146.76923 -421.96155 1908
-109.50961 -359.81732 1627
-75.75 -290.375 1313
-13.942307 -64.134613 290
-11.923077 -68.557693 310
-5.8269229 -44.673077 202
-5.9038463 -67.894234 307
-3.4615386 -79.615387 360
0 -70.105766 317
3.3557692 -77.182693 349
6.2307692 -71.653847 324
9.1442308 -70.105766 317
13 -74.75 338
16.057692 -73.865387 334
20.653847 -79.17308 358
21.942308 -72.096153 326
26.076923 -74.971153 339
28.557692 -72.980766 330
29.326923 -67.45192 305
49.28846 -103.05769 466
42.576923 -81.605766 369
45.5 -80.5 364
47.115383 -77.403847 350
52.21154 -80.057693 362
52.923077 -76.07692 344
64.730766 -87.57692 396
62.134617 -79.394234 359
68.692307 -83.153847 376
73.846153 -84.92308 384
82.58654 -90.45192 409
78.692307 -82.269234 372
91.557693 -91.557693 414
84.230766 -80.721153 365
87.5 -80.5 364
90.75 -80.278847 363
104.36539 -88.903847 402
104.73077 -86.028847 389
102.61539 -81.384613 368
119.13461 -91.33654 413
122.21154 -90.67308 410
121.53846 -87.355766 395
146.91347 -102.39423 463
146.46153 -99.07692 448
124.51923 -81.82692 370
156.46153 -99.96154 452
235.51923 -146.40384 662
246.63461 -149.27884 675
520.875 -307.18268 1389
602.69232 -346.54807 1567
121 7 65300
122 7 65300
123 7 65300
124 7 65300
125 7 65300
126 7 65300
127 7 65300
128 7 65300
976.7019 -458.45193 2073
1045.6731 -481.00961 2175
1318.6443 -594.68268 2689
1374 -607.73077 2748
1329.0769 -576.76923 2608
1445.0193 -615.47113 2783
1464.9038 -612.59613 2770
1489.9231 -611.93268 2767
1522.5577 -614.36536 2778
1552.6154 -615.69232 2784
1634.4135 -637.14423 2881
1601.5385 -613.9231 2776
1613.5673 -608.39423 2751
1631.0769 -605.0769 2736
1720.3846 -628.0769 2840
1690.4615 -607.50964 2747
1663.125 -588.49036 2661
1662.0577 -579.2019 2619
1809.6443 -621.22113 2809
1815.7307 -614.14423 2777
149 7 65300
150 7 65300
1800.2596 -583.18268 2637
1876.8462 -599.5481 2711
153 7 65300
154 7 65300
155 7 65300
156 7 65300
157 7 65300
158 7 65300
159 7 65300
-451.53845 -124.17308 587
-449.69232 -125.23077 592
-425.25 -119.94231 567
-450.15384 -128.61539 608
-410.69232 -118.88461 562
-861.05768 -252.57692 1194
-1610.2115 -478.71155 2263
7 8 65300
8 8 65300
9 8 65300
10 8 65300
11 8 65300
-1972.6538 -638.21155 3017
-1879.8654 -617.26923 2918
-1909.5577 -636.51923 3009
-1946.875 -658.94232 3115
-1857.8462 -638.63464 3019
-1740.9807 -607.96155 2874
-1488.5962 -528.21155 2497
-1332.6154 -480.61539 2272
-1362.6923 -499.65384 2362
-1365.5096 -509.17307 2407
-1270.4231 -481.88461 2278
-1300.0385 -501.76923 2372
-1273.4615 -500.28845 2365
-1270.2885 -508.11539 2402
-1284.0577 -523.13464 2473
-1443.7404 -599.28845 2833
-1586.5 -671.21155 3173
-1582.9615 -682.84613 3228
-1567.3077 -689.61536 3260
-1521.8269 -683.26923 3230
-1469.0769 -673.3269 3183
-1453.8365 -680.51923 3217
-1425.5577 -681.78845 3223
-1379.4231 -674.38464 3188
-1349.1923 -674.59613 3189
-1328.4519 -679.6731 3213
-1273.3269 -666.98077 3153
-1233.1538 -661.69232 3128
-1176.1538 -646.88464 3058
-1174.125 -662.3269 3131
-1065.4615 -616.84613 2916
43 8 65300
44 8 65300
45 8 65300
46 8 65300
47 8 65300
48 8 65300
49 8 65300
50 8 65300
51 8 65300
52 8 65300
-726.9231 -592.30768 2800
-758.75 -642.01923 3035
-697.59613 -613.88464 2902
-670.38464 -614.51923 2905
-571.90387 -547.03845 2586
-473.84616 -473.84616 2240
-484.61539 -507.69232 2400
-453.07693 -498.38461 2356
-442.66345 -512.55768 2423
-427.5 -522.5 2470
-395.08655 -511.28845 2417
-376.76923 -518.05768 2449
-352.21155 -516.5769 2442
-326.98077 -513.8269 2429
-284.75 -481.88461 2278
-262.26923 -480.82693 2273
-211.32692 -422.65384 1998
-181.82692 -400.01923 1891
-150.83653 -368.71155 1743
-135.15384 -371.67307 1757
-69.932693 -219.78847 1039
-52.903847 -193.98077 917
-19.807692 -87.153847 412
-16.26923 -89.480766 423
-9.8653851 -72.346153 342
-7.25 -79.75 377
-3.2403846 -71.28846 337
0 -79.115387 374
3.0865386 -67.903847 321
7.3076925 -80.384613 380
13.817307 -101.32692 479
15.730769 -86.519234 409
17.259615 -75.942307 359
19.788462 -72.557693 343
23.557692 -74.03846 350
22.692308 -62.403847 295
32.01923 -78.269234 370
36.442307 -80.17308 379
37.759617 -75.519234 357
40.96154 -75.096153 355
43.875 -74.25 351
45.76923 -71.92308 340
45.28846 -66.42308 314
53.076923 -72.980766 345
51.653847 -66.846153 316
60.576923 -74.03846 350
67.04808 -77.634613 367
72.115387 -79.32692 375
77.53846 -81.230766 384
70.019234 -70.019234 331
78.067307 -74.67308 353
88.846153 -81.442307 385
95.432693 -83.980766 397
95.25 -80.596153 381
98.134613 -79.96154 378
112 -88 416
108.75 -82.5 390
109.90385 -80.596153 381
124.29808 -88.21154 417
95.692307 -65.78846 311
100.90385 -67.269234 318
103.63461 -67.057693 317
135.96153 -85.46154 404
79.615387 -48.653847 230
221.64423 -131.78847 623
217.40384 -125.86539 595
119 8 65300
120 8 65300
121 8 65300
122 8 65300
123 8 65300
124 8 65300
125 8 65300
126 8 65300
1025.8654 -480.19232 2270
1074 -492.25 2327
1032.7693 -463.69232 2192
1079.3269 -474.90384 2245
1378.4712 -594.63464 2811
1455.5 -615.78845 2911
1425.9038 -591.88464 2798
1510.9615 -615.5769 2910
1474.4231 -589.76923 2788
1560.4615 -613.03845 2898
1569.6923 -605.84613 2864
1560.9807 -592.09613 2799
1656.5385 -617.69232 2920
1660.3846 -608.80768 2878
1652.8654 -596.11536 2818
1699.0385 -602.88464 2850
1751.2788 -611.55768 2891
1761.8462 -605.63464 2863
1799.375 -609.01923 2879
1808.0193 -602.6731 2849
1841.2115 -604.5769 2858
1838.6154 -594.84613 2812
149 8 65300
150 8 65300
151 8 65300
1971.6923 -602.46155 2848
1987.8462 -599.0769 2832
154 8 65300
155 8 65300
156 8 65300
157 8 65300
158 8 65300
159 8 65300
-417.69232 -109.64423 543
-436.77884 -116.10577 575
-440.25 -118.52885 587
-447.93268 -122.16346 605
-359.53845 -99.346153 492
-848.0769 -237.46153 1176
-1652.1923 -468.86539 2322
7 9 65300
8 9 65300
9 9 65300
10 9 65300
11 9 65300
-1942.5769 -599.91345 2971
-1900.4807 -595.6731 2950
-1926.0577 -612.83655 3035
-1921.25 -620.71155 3074
-1890.4615 -620.30768 3072
-1871.2212 -623.74036 3089
-1772.9615 -600.51923 2974
-1654.625 -569.625 2821
-1618.8462 -566.59613 2806
-1610.5865 -573.25964 2839
-1513.5769 -548.01923 2714
-1495.1538 -550.84613 2728
-1490.4615 -558.9231 2768
-1518.8462 -579.9231 2872
-1611.6923 -626.76923 3104
-1570.125 -622.125 3081
-1606.5 -648.77887 3213
-1587.8654 -653.8269 3238
-1560.5769 -655.44232 3246
-1520.8846 -651.80768 3228
-1469.5385 -642.9231 3184
-1428.9807 -638.48077 3162
-1425.1154 -650.59613 3222
-1387.2115 -647.36536 3206
-1337.7693 -638.48077 3162
-1297.0288 -633.43268 3137
-1261.6154 -630.80768 3124
-1211.0769 -620.30768 3072
-1181.9231 -620.50964 3073
-1146.75 -617.48077 3058
-1043.1731 -576.49036 2855
43 9 65300
44 9 65300
45 9 65300
46 9 65300
47 9 65300
48 9 65300
49 9 65300
50 9 65300
51 9 65300
52 9 65300
-717.31732 -557.91345 2763
-716.5 -578.71155 2866
-706.97113 -593.85577 2941
-670.15387 -586.38464 2904
-563.5 -514.5 2548
-462 -441 2184
-473.50961 -473.50961 2345
-437.88461 -459.77884 2277
-389.31732 -430.29807 2131
-383.19232 -447.05768 2214
-338.03845 -417.57693 2068
-332.92307 -436.96155 2164
-297.69232 -416.76923 2064
-302.07693 -453.11539 2244
-254.625 -411.31732 2037
-241.73077 -423.02884 2095
-197.68269 -377.39423 1869
-152.88461 -321.05768 1590
-45.259617 -105.60577 523
-35.153847 -92.278847 457
-11.778846 -35.33654 175
-16.5 -57.75 286
-15.528846 -65.221153 323
-13.807693 -72.490387 359
-9.6346149 -67.442307 334
-6.7692308 -71.07692 352
-3.3461537 -70.269234 348
0 -72.490387 359
3.375 -70.875 351
6.25 -65.625 325
9.9807692 -69.865387 346
14.461538 -75.92308 376
20.14423 -84.605766 419
25.846153 -90.46154 448
24.365385 -73.096153 362
30.692308 -80.567307 399
31.326923 -73.096153 362
35.192307 -73.903847 366
39.557693 -75.519234 374
40.384617 -70.67308 350
54.625 -88.240387 437
54.25 -81.375 403
66.490387 -93.08654 461
62.76923 -82.384613 408
68.32692 -84.403847 418
67.32692 -78.54808 389
71.980766 -79.557693 394
80.57692 -84.605766 419
76.730766 -76.730766 380
91.384613 -87.230766 432
94.21154 -86.019234 426
81.92308 -71.682693 355
101.92308 -85.615387 424
107.75 -87.028847 431
100.47115 -78.144234 387
103.11539 -77.33654 383
125.48077 -90.865387 450
139.32692 -97.528847 483
155.59616 -105.40385 522
146.46153 -96.115387 476
219.89423 -139.93269 693
232.11539 -143.36539 710
461.73077 -277.03845 1372
465.57693 -271.58655 1345
117 9 65300
118 9 65300
119 9 65300
120 9 65300
121 9 65300
122 9 65300
123 9 65300
124 9 65300
1054.4712 -492.08655 2437
977.5 -446.25 2210
1016.8269 -454.32693 2250
1015.3846 -444.23077 2200
1032.2981 -442.41345 2191
1055.2885 -443.22116 2195
1359.3462 -559.73077 2772
1390 -561.34613 2780
1511.0096 -598.7019 2965
1582.6154 -615.46155 3048
1499.2788 -572.4519 2835
1580.9231 -592.84613 2936
1574.0769 -579.9231 2872
1600.0193 -579.31732 2869
1678.6635 -597.49036 2959
1678.2693 -587.39423 2909
1682.7788 -579.31732 2869
1724.6731 -584.16345 2893
1752.4904 -584.16345 2893
1763.0769 -578.50964 2865
1799.375 -581.33655 2879
1792.7885 -570.43268 2825
1849.5865 -579.72113 2871
1891.5769 -584.16345 2893
1866.9807 -568.21155 2814
150 9 65300
1815.2788 -536.91345 2659
1928.0769 -562.35577 2785
1984.3365 -570.83655 2827
154 9 65300
155 9 65300
156 9 65300
157 9 65300
158 9 65300
159 9 65300
-441.53845 -110.38461 574
-435.25961 -110.19231 573
-426 -109.23077 568
-442.75 -115 598
-407.03845 -107.11539 557
-833.65387 -222.30769 1156
-1644.3654 -444.42307 2311
7 10 65300
8 10 65300
9 10 65300
10 10 65300
11 10 65300
-1910.5385 -561.9231 2922
-1892.1057 -564.80768 2937
-2012.3654 -609.80768 3171
-1930.625 -594.03845 3089
-1918.7693 -599.61536 3118
-1910.5962 -606.53845 3154
-1900.5385 -613.0769 3188
-1890.4135 -619.80768 3223
-1899.2307 -633.0769 3292
-1792.125 -607.5 3159
-1828.6731 -630.5769 3279
-1784.5385 -626.15387 3256
-1747.8462 -624.23077 3246
-1687.0193 -613.46155 3190
-1657.9038 -614.03845 3193
-1645.5481 -620.96155 3229
-1606 -617.69232 3212
-1587.375 -622.5 3237
-1545.1923 -618.0769 3214
-1529.3654 -624.23077 3246
-1493.0769 -622.11536 3235
-1443.4423 -614.23077 3194
-1429.9807 -621.73077 3233
-1371.6346 -609.61536 3170
-1350.4615 -613.84613 3192
-1301.9904 -605.5769 3149
-1260 -600 3120
-1240.25 -605 3146
-1203.8462 -601.9231 3130
-1174.5 -602.30768 3132
-1064.7307 -560.38464 2914
43 10 65300
44 10 65300
45 10 65300
46 10 65300
47 10 65300
48 10 65300
49 10 65300
50 10 65300
51 10 65300
52 10 65300
-724.3269 -536.53845 2790
-736.75 -566.73077 2947
-682.4519 -545.96155 2839
-631.38464 -526.15387 2736
-522.58655 -454.42307 2363
-424.13461 -385.57693 2005
-379.00961 -360.96155 1877
-343.65384 -343.65384 1787
-346.56732 -364.80768 1897
-328.67307 -365.19232 1899
-254.34616 -299.23077 1556
-222 -277.5 1443
-233.50961 -311.34616 1619
-228.17308 -325.96155 1695
-226.75 -348.84616 1814
-209.42308 -349.03845 1815
-127.45192 -231.73077 1205
-89.42308 -178.84616 930
-44.048077 -97.884613 509
-40.692307 -101.73077 529
-20.057692 -57.307693 298
-19.5 -65 338
-16.826923 -67.307693 350
-13.807693 -69.03846 359
-10.990385 -73.269234 381
-6.9423075 -69.42308 361
-3.4519231 -69.03846 359
0 -64.42308 335
3.0288463 -60.576923 315
6.6923075 -66.92308 348
10.5 -70 364
13.730769 -68.653847 357
15.240385 -60.96154 317
18.923077 -63.076923 328
21 -60 312
30.461538 -76.153847 396
33.057693 -73.46154 382
30 -60 312
35.75 -65 338
36.46154 -60.76923 316
47.125 -72.5 377
45.634617 -65.192307 339
50.192307 -66.92308 348
58.153847 -72.692307 378
61.78846 -72.692307 378
61.96154 -68.846153 358
59.009617 -62.115383 323
67.115387 -67.115387 349
83.394234 -79.42308 413
79.53846 -72.307693 376
74.08654 -64.42308 335
77.07692 -64.230766 334
77.644234 -62.115383 323
94.75 -72.884613 379
78.403847 -58.076923 302
80.5 -57.5 299
95.08654 -65.57692 341
90 -60 312
104.625 -67.5 351
65.846153 -41.153847 214
198.31731 -120.19231 625
114 10 65300
115 10 65300
116 10 65300
117 10 65300
118 10 65300
119 10 65300
120 10 65300
121 10 65300
122 10 65300
123 10 65300
1056.4231 -480.19232 2497
1080.4327 -480.19232 2497
1061.9807 -461.73077 2401
1056.1443 -449.42307 2337
1075.3846 -448.07693 2330
1084.5962 -442.69232 2302
1091.8269 -436.73077 2271
1388.7693 -544.61536 2832
1462 -562.30768 2924
1519.6731 -573.46155 2982
1611.6923 -596.9231 3104
1550.0481 -563.65387 2931
1620.2307 -578.65387 3009
1628.3365 -571.34613 2971
1639.0577 -565.19232 2939
1691.1443 -573.26923 2981
1720.3846 -573.46155 2982
1743.7788 -571.73077 2973
1781.9038 -574.80768 2989
1764.6057 -560.19232 2913
1793.8462 -560.5769 2915
1805 -555.38464 2888
1867.6731 -565.96155 2943
1884.375 -562.5 2925
1924.2693 -565.96155 2943
1967.8269 -570.38464 2966
1950.5769 -557.30768 2898
1980.4904 -557.88464 2901
1987.6154 -552.11536 2871
2070.6731 -567.30768 2950
154 10 65300
155 10 65300
2095.8462 -551.53845 2868
157 10 65300
158 10 65300
159 10 65300
-449.23077 -106.69231 584
-456.52884 -109.79808 601
-453.75 -110.52885 605
-423.5 -104.5 572
-390.96155 -97.740387 535
-788.94232 -199.86539 1094
-1593.1346 -409.04807 2239
7 11 65300
8 11 65300
9 11 65300
10 11 65300
11 11 65300
-1939.3077 -541.86536 2966
-1861.1827 -527.7981 2889
-1960.9615 -564.51923 3090
-1920.625 -561.41345 3073
-1913.8462 -568.1731 3110
-1920.8943 -579.31732 3171
-1884.4423 -577.49036 3161
-1872.8173 -583.33655 3193
-1836.9231 -581.69232 3184
-1840.3462 -592.65387 3244
-1782.3846 -583.88464 3196
-1763.1635 -587.72113 3217
-1736 -589 3224
-1707.1154 -589.73077 3228
-1662.5769 -584.98077 3202
-1659.3077 -594.84613 3256
-1629.5 -595.39423 3259
-1591.7885 -593.01923 3246
-1567.3077 -595.5769 3260
-1536.9038 -595.94232 3262
-1493.0769 -591.00964 3235
-1466.0385 -592.65387 3244
-1445.9038 -597.22113 3269
-1385.4807 -584.98077 3202
-1354.2693 -584.7981 3201
-1295.7885 -572.55768 3134
-1283.8269 -580.77887 3179
-1230.3943 -570.18268 3121
-1198.0769 -569.08655 3115
-1172.25 -571.09613 3126
-1057.0577 -528.52887 2893
43 11 65300
44 11 65300
45 11 65300
46 11 65300
-435.34616 -250.65384 1372
-320.92307 -190.54808 1043
-198.81731 -121.85577 667
-220.96153 -139.94231 766
-204.95192 -134.27884 735
-365.88461 -248.27884 1359
-546.49036 -384.56732 2105
-397 -290.11539 1588
-141.58653 -107.60577 589
-115.38461 -91.346153 500
-64.134613 -52.98077 290
-60.28846 -52.067307 285
-56.740383 -51.33654 281
-38.846153 -36.903847 202
-28.682692 -28.682692 157
-37.73077 -39.826923 218
-12.586538 -14.067307 77
-19.538462 -23.201923 127
-21.346153 -27.038462 148
-18.98077 -25.759615 141
-32.125 -46.951923 257
-31.26923 -49.509617 271
-20.307692 -35.076923 192
-28.365385 -53.89423 295
-27.173077 -57.365383 314
-25.153847 -59.740383 327
-25.442308 -69.057693 378
-20.76923 -65.769234 360
-17.5 -66.5 364
-13.076923 -62.115383 340
-9.8365383 -62.298077 341
-6.8653846 -65.221153 357
-2.9519231 -56.08654 307
0 -67.96154 372
2.75 -52.25 286
7.3846154 -70.153847 384
10.586538 -67.04808 367
14.846154 -70.519234 386
15.528846 -59.009617 323
21.634615 -68.509613 375
23.759615 -64.490387 353
29.153847 -69.240387 379
36.778847 -77.644234 425
35.576923 -67.596153 370
47.278847 -81.66346 447
42.23077 -66.865387 366
52.875 -77.278847 423
55.192307 -74.903847 410
58.41346 -73.990387 405
55.692307 -66.134613 362
70.125 -78.375 429
66.980766 -70.70192 387
76.54808 -76.54808 419
81.53846 -77.46154 424
95.307693 -86.230766 472
76.153847 -65.769234 360
100.625 -83.125 455
100.61539 -79.653847 436
142.30769 -108.15385 592
137.25 -100.29808 549
170.56731 -120.02885 657
188.46153 -127.88461 700
259.32693 -169.90384 930
271.15384 -171.73077 940
478.11539 -293.03845 1604
112 11 65300
113 11 65300
114 11 65300
115 11 65300
116 11 65300
117 11 65300
118 11 65300
119 11 65300
983.84613 -467.32693 2558
1079.7981 -500.39423 2739
122 11 65300
1021.6635 -451.43268 2471
1034 -446.5 2444
1086.4904 -458.74039 2511
1074.8077 -443.94232 2430
1019.0865 -411.97116 2255
1068.9231 -423.11539 2316
1041.25 -403.75 2210
1123.5577 -426.95193 2337
1377.9807 -513.36536 2810
1432 -523.23077 2864
1532.9231 -549.53845 3008
1601.3077 -563.4231 3084
1547.4038 -534.55768 2926
1582.5385 -536.93268 2939
1633.2693 -544.4231 2980
1658.5769 -543.3269 2974
1684.3365 -542.41345 2969
1724.4231 -546.06732 2989
1751.4038 -545.51923 2986
1770.5769 -542.59613 2970
1783.9904 -538.02887 2945
1796.3077 -533.27887 2919
1851.25 -541.13464 2962
1891.7885 -544.60577 2981
1903.0577 -539.6731 2954
1934.7307 -540.58655 2959
1963.8462 -540.76923 2960
1948.5577 -528.89423 2895
1995.5096 -534.00964 2923
1973.7693 -520.85577 2851
1986.4423 -517.01923 2830
1972.3846 -506.42307 2772
2077.6443 -526.33655 2881
2036.6538 -509.16345 2787
157 11 65300
158 11 65300
159 11 65300
-460 -103.5 598
-427.66345 -97.442307 563
-471 -108.69231 628
-459.03845 -107.30769 620
-431.15384 -102.11539 590
-789.66345 -189.51923 1095
-1596.6923 -388.38461 2244
7 12 65300
8 12 65300
9 12 65300
10 12 65300
11 12 65300
-1984.4231 -525.28845 3035
-1888.8846 -507.46155 2932
-1964.7693 -535.84613 3096
-1931.25 -534.80768 3090
-1936 -544.5 3146
-1932.4038 -552.11536 3190
-1925.5769 -559.03845 3230
-1898.625 -560.25 3237
-1875.5769 -562.6731 3251
-1845.4519 -563.01923 3253
-1819.75 -564.75 3263
-1759.3269 -555.5769 3210
-1747.8462 -561.80768 3246
-1722.9807 -563.88464 3258
-1655.3077 -551.76923 3188
-1654.7212 -561.98077 3247
-1612 -558 3224
-1595.7115 -563.19232 3254
-1570.6731 -565.44232 3267
-1544.4423 -567.34613 3278
-1496.7693 -561.28845 3243
-1451.5769 -555.9231 3212
-1415.3846 -553.84613 3200
-1369.9038 -547.96155 3166
-1358.5 -555.75 3211
-1302.8173 -545.36536 3151
-1277.3654 -547.44232 3163
-1247.3462 -547.61536 3164
-1214.6154 -546.5769 3158
-1177.125 -543.28845 3139
-1069.4807 -506.59616 2927
43 12 65300
44 12 65300
45 12 65300
-675.09613 -357.40384 2065
-240.83653 -131.36539 759
-228.61539 -128.59616 743
-181.52884 -105.40385 609
-191.25 -114.75 663
-176.23077 -109.38461 632
-186.30769 -119.76923 692
-277.78845 -185.19231 1070
-199.5 -138.11539 798
-106.49039 -76.67308 443
-113.30769 -84.980766 491
-108.14423 -84.634613 489
-92.019234 -75.28846 435
-94.096153 -80.653847 466
-87.884613 -79.096153 457
-69.78846 -66.115387 382
-70.096153 -70.096153 405
-59.826923 -63.346153 366
-57.384617 -64.557693 373
-54.51923 -65.42308 378
-46.71154 -60.057693 347
-49.125 -68.019234 393
-44.423077 -66.634613 385
-41.25 -67.5 390
-35.48077 -63.865383 369
-31.067308 -62.134617 359
-28.846153 -64.903847 375
-24.028847 -61.78846 357
-20.76923 -62.307693 360
-17.692308 -63.692307 368
-15.269231 -68.71154 397
-10.788462 -64.730766 374
-7.1923075 -64.730766 374
-3.4519231 -62.134617 359
0 -68.365387 395
3.1057692 -55.903847 323
6.25 -56.25 325
10.759615 -64.557693 373
12.961538 -58.326923 337
15.865385 -57.115383 330
17.307692 -51.923077 300
24.634615 -63.346153 366
24.615385 -55.384617 320
31.932692 -63.865383 369
36.73077 -66.115387 382
39.76923 -65.07692 376
39.346153 -59.01923 341
46.125 -63.865383 369
45.76923 -58.846153 340
49.182693 -59.01923 341
48.46154 -54.51923 315
51.326923 -54.346153 314
52.78846 -52.78846 305
57.91346 -54.865383 317
55.384617 -49.846153 288
57.14423 -48.98077 283
51.826923 -42.403847 245
69.884613 -54.692307 316
58.153847 -43.615383 252
100.48077 -72.346153 418
67.5 -46.73077 270
144.08653 -96.057693 555
146.46153 -94.153847 544
279.40384 -173.42308 1002
110 12 65300
111 12 65300
112 12 65300
113 12 65300
114 12 65300
115 12 65300
116 12 65300
117 12 65300
118 12 65300
119 12 65300
1052.3077 -473.53845 2736
1129.0769 -495.69232 2864
122 12 65300
123 12 65300
1109.3077 -453.80768 2622
1066.1538 -426.46155 2464
1103.1154 -431.65384 2494
1055.6923 -404.30768 2336
1117.8462 -419.19232 2422
1078.9423 -396.34616 2290
1169.2307 -420.92307 2432
1391.7115 -491.19232 2838
1438.5 -497.94232 2877
1493.1731 -507.11539 2930
1625.7115 -541.90387 3131
1563.2693 -511.61539 2956
1618.0769 -520.09613 3005
1638.75 -517.5 2990
1668.0577 -517.6731 2991
1710.4327 -521.8269 3015
1728.4615 -518.53845 2996
1765.4807 -520.96155 3010
1795.0193 -521.13464 3011
1801.5577 -514.73077 2974
1832 -515.25 2977
1880 -520.61536 3008
1899.4038 -518.01923 2993
1905.6346 -511.96155 2958
1913.8077 -506.59616 2927
1993.7019 -520.09613 3005
1979.5193 -509.01923 2941
2033.0577 -515.4231 2978
1988.3077 -497.07693 2872
2012.4135 -496.21155 2867
1956.7307 -475.96155 2750
155 12 65300
156 12 65300
157 12 65300
158 12 65300
159 12 65300
-451.53845 -95.95192 587
-406.39423 -87.45192 535
-441.75 -96.278847 589
-470.88461 -103.96154 636
-409.23077 -91.53846 560
-763.7019 -173.10577 1059
-1480.7115 -340.16345 2081
7 13 65300
8 13 65300
9 13 65300
10 13 65300
-1958.5385 -482.53845 2952
-1985.0769 -496.26923 3036
-1888.8846 -479.26923 2932
-1946.3654 -501.33655 3067
-1918.75 -501.82693 3070
-1922.4615 -510.65384 3124
-1894.2404 -511.14423 3127
-1892.7885 -518.99036 3175
-1866.3654 -520.13464 3182
-1864.0385 -528.14423 3231
-1857.3654 -535.1731 3274
-1805.25 -529.125 3237
-1787.2788 -533.0481 3261
-1753.7693 -532.39423 3257
-1711.3462 -528.96155 3236
-1694.25 -533.375 3263
-1671.0288 -535.99036 3279
-1633 -533.86536 3266
-1610.9135 -536.97113 3285
-1554.8077 -528.63464 3234
-1527.4807 -529.94232 3242
-1472.7693 -521.60577 3191
-1442.9904 -521.93268 3193
-1437.0577 -531.08655 3249
-1360.8173 -514.08655 3145
-1349.1923 -521.27887 3189
-1319.3557 -521.60577 3191
-1258.3846 -509.34616 3116
-1222.5096 -506.89423 3101
-1210.7693 -514.5769 3148
-1171.125 -510.49039 3123
-1089.5769 -487.44232 2982
43 13 65300
44 13 65300
-390.38461 -189.61539 1160
-208.25 -104.125 637
-28.557692 -14.711538 90
-98.46154 -52.307693 320
-82.567307 -45.278847 277
-87.403847 -49.528847 303
-80.58654 -47.240383 289
-68.115387 -41.35577 253
-77.625 -48.875 299
-70.75 -46.259617 283
-75.96154 -51.653847 316
-75.692307 -53.615383 328
-66.567307 -49.201923 301
-71.71154 -55.41346 339
-64.009613 -51.817307 317
-65 -55.25 338
-57.365383 -51.326923 314
-59.192307 -55.903847 342
-56.23077 -56.23077 344
-49.076923 -52.14423 319
-45 -51 312
-43.884617 -53.28846 326
-44 -57.53846 352
-34.5 -48.875 299
-36.701923 -56.721153 347
-30.76923 -52.307693 320
-28.64423 -54.10577 331
-25.538462 -54.26923 332
-21.740385 -52.798077 323
-20.25 -57.375 351
-15.528846 -52.798077 323
-14.076923 -59.826923 366
-8.3942308 -47.567307 291
-7.2884617 -61.951923 379
-4.3461537 -73.884613 452
0 -48.548077 297
3.9230769 -66.692307 408
5.4038463 -45.932693 281
10.875 -61.625 377
14.5 -61.625 377
19.326923 -65.71154 402
21.634615 -61.298077 375
26.788462 -65.057693 398
29.615385 -62.932693 385
32.53846 -61.46154 376
35.865383 -60.971153 373
43.153847 -66.692307 408
44.076923 -62.442307 382
54.875 -71.759613 439
59.903847 -72.740387 445
74.71154 -84.67308 518
72.46154 -76.990387 471
113.76923 -113.76923 696
133.44231 -126.02885 771
177.02884 -158.39423 969
179.23077 -152.34616 932
248.76923 -201.38461 1232
258.07693 -199.42308 1220
345.88461 -255.65384 1564
334.38461 -236.85577 1449
105 13 65300
106 13 65300
107 13 65300
108 13 65300
109 13 65300
110 13 65300
111 13 65300
112 13 65300
113 13 65300
114 13 65300
115 13 65300
116 13 65300
117 13 65300
118 13 65300
119 13 65300
1031.9231 -438.56732 2683
1103.8462 -457.69232 2800
1050.4038 -425.16345 2601
1067.9712 -422.22116 2583
1054.7307 -407.50961 2493
1071.3462 -404.73077 2476
1086.75 -401.625 2457
1108.5673 -400.97116 2453
1115.0769 -394.92307 2416
1063.8654 -369.09616 2258
1175.4807 -399.66345 2445
1425.5481 -475.18268 2907
1399 -457.36539 2798
1525.2788 -489.24039 2993
1638.6923 -515.88464 3156
1585.4807 -490.05768 2998
1632.0769 -495.45193 3031
1678.2115 -500.51923 3062
1666.3846 -488.42307 2988
1704.7596 -491.20193 3005
1731.3462 -490.54807 3001
1765.4807 -492.01923 3010
1771.7693 -485.80768 2972
1811.25 -488.75 2990
1815.3846 -482.21155 2950
1874.375 -490.22116 2999
1879.0962 -484.00961 2961
1928.8269 -489.40384 2994
1916.4231 -479.10577 2931
1974.4615 -486.46155 2976
1988.9423 -483.02884 2955
1977.0769 -473.38461 2896
1977.9231 -467.00961 2857
2021.5385 -470.76923 2880
1945.3462 -446.90384 2734
155 13 65300
156 13 65300
157 13 65300
158 13 65300
159 13 65300
-428.46155 -85.692307 557
-436.01923 -88.307693 574
-474 -97.230766 632
-472.36539 -98.153847 638
-428.96155 -90.307693 587
-764.4231 -163.07692 1060
-1560.4038 -337.38461 2193
7 14 65300
8 14 65300
9 14 65300
10 14 65300
-1875.6057 -434.92307 2827
-1996.1923 -469.69232 3053
-1897.2596 -453.07693 2945
-1932.4038 -468.46155 3045
-1935.625 -476.46155 3097
-1920.6154 -480.15384 3121
-1934.8269 -491.38461 3194
-1892.1923 -488.30768 3174
-1899.2115 -498.15384 3238
-1897.5 -506 3289
-1845.4519 -500.46155 3253
-1805.8077 -498.15384 3238
-1762.0673 -494.61539 3215
-1744.0769 -498.30768 3239
-1733.5577 -504.30768 3278
-1700.4807 -503.84616 3275
-1661.3462 -501.53845 3260
-1621.5 -498.92307 3243
-1581.4904 -496.15384 3225
-1556.25 -498 3237
-1543.5 -504 3276
-1497.2307 -499.07693 3244
-1443.4423 -491.38461 3194
-1446.3462 -503.07693 3270
-1360.8173 -483.84616 3145
-1347.5 -490 3185
-1319.7693 -491.07693 3192
-1289.0769 -491.07693 3192
-1227.6346 -479.07693 3114
-1203.8462 -481.53845 3130
-1166.625 -478.61539 3111
-1082.6346 -455.84616 2963
43 14 65300
44 14 65300
-332.83655 -152.15384 989
-202.69231 -95.384613 620
-82.5 -40 260
-121.23077 -60.615383 394
-103.43269 -53.384617 347
-106.44231 -56.76923 369
-101.5 -56 364
-89.384613 -51.076923 332
-103.58654 -61.384617 399
-93.5 -57.53846 374
-100.48077 -64.307693 418
-88.846153 -59.23077 385
-85.365387 -59.384617 386
-75.519234 -54.923077 357
-75.721153 -57.692307 375
-72.115387 -57.692307 375
-59.375 -50 325
-65.25 -58 377
-57.375 -54 351
-56.153847 -56.153847 365
-49.903847 -53.23077 346
-54.51923 -62.307693 405
-44.5 -54.76923 356
-45.23077 -60.307693 392
-44 -64 416
-33.557693 -53.692307 349
-28.903847 -51.384617 334
-29.076923 -58.153847 378
-26.788462 -61.23077 398
-15.057693 -40.153847 261
-17.5 -56 364
-14.769231 -59.076923 384
-9.375 -50 325
-6.6346154 -53.076923 345
-3.2884614 -52.615383 342
0 -51.076923 332
3.4711537 -55.53846 361
5.8846154 -47.076923 306
9.8365383 -52.46154 341
14.192307 -56.76923 369
17.98077 -57.53846 374
19.788462 -52.76923 343
26.182692 -59.846153 389
25.615385 -51.23077 333
30.201923 -53.692307 349
28.75 -46 299
37.971153 -55.23077 359
35.076923 -46.76923 304
36 -44.307693 288
20.596153 -23.538462 153
47.596153 -50.76923 330
39.384617 -39.384617 256
124.39423 -117.07692 761
132.75 -118 767
181.23077 -152.61539 992
148.46153 -118.76923 772
101 14 65300
102 14 65300
103 14 65300
104 14 65300
105 14 65300
106 14 65300
107 14 65300
108 14 65300
109 14 65300
110 14 65300
111 14 65300
112 14 65300
113 14 65300
114 14 65300
115 14 65300
116 14 65300
117 14 65300
118 14 65300
939.75 -385.53845 2506
1027.6923 -411.07693 2672
1131.4423 -441.53845 2870
1075.0385 -409.53845 2662
1053.9135 -392.15384 2549
1076.3077 -391.38461 2544
1104.6635 -392.76923 2553
1091.6154 -379.69232 2468
1050.7212 -357.69232 2325
1077.6923 -359.23077 2335
1097.7885 -358.46155 2330
1182.6923 -378.46155 2460
1430.9423 -448.92307 2918
1528.5 -470.30768 3057
1619.0481 -488.76923 3177
1635.5769 -484.61539 3150
1580.7212 -459.84616 2989
1661.1538 -474.61539 3085
1665.0577 -467.38461 3038
1707.0962 -470.92307 3061
1710.4327 -463.84616 3015
1729.6154 -461.23077 2998
1767.2404 -463.53845 3013
1807.5385 -466.46155 3032
1843.3557 -468.15384 3043
1841.2307 -460.30768 2992
1873.125 -461.07693 2997
1874.0193 -454.30768 2953
1897.2596 -453.07693 2945
1935.3846 -455.38461 2960
1965.8365 -455.84616 2963
1978.1731 -452.15384 2939
2015.9904 -454.30768 2953
1997.3077 -443.84616 2885
2041.8943 -447.53845 2909
1985.1923 -429.23077 2790
155 14 65300
156 14 65300
157 14 65300
158 14 65300
159 14 65300
-446.92307 -83.79808 581
-439.05768 -83.365387 578
-453 -87.115387 604
-429.42307 -83.653847 580
-413.61539 -81.634613 566
-758.65387 -151.73077 1052
-1545.4615 -313.26923 2172
7 15 65300
8 15 65300
9 15 65300
-2005.0962 -429.66345 2979
11 15 65300
-1955.6538 -431.39423 2991
-1928.8269 -431.82693 2994
-1957.7885 -444.95193 3085
-1923.75 -443.94232 3078
-1942.7693 -455.33655 3157
-1911.2019 -455.04807 3155
-1908.2885 -461.68268 3201
-1891.5865 -465.14423 3225
-1878.4615 -469.61539 3256
-1835.8077 -466.73077 3236
-1813.0577 -468.89423 3251
-1789.4712 -470.91345 3265
-1738.1538 -465.57693 3228
-1709.7596 -466.29807 3233
-1674.5193 -465.14423 3225
-1661.3462 -470.19232 3260
-1611 -464.71155 3222
-1588.8462 -467.30768 3240
-1579.3269 -473.79807 3285
-1514.7596 -463.70193 3215
-1484.3077 -463.84616 3216
-1445.25 -461.25 3198
-1436.1731 -468.31732 3247
-1366.4423 -455.48077 3158
-1369.5 -466.875 3237
-1309.0193 -456.63461 3166
-1270.9038 -453.89423 3147
-1241.0385 -454.03845 3148
-1197.6923 -449.13461 3114
-1174.875 -451.875 3133
-1076.7885 -425.04807 2947
-1064.1057 -431.39423 2991
-836.65387 -348.60577 2417
-338.89423 -145.24039 1007
-282.46155 -124.61539 864
-90.115387 -40.96154 284
-120.30769 -56.39423 391
-123.40385 -59.71154 414
-114.51923 -57.259617 397
-104.84615 -54.23077 376
-95.846153 -51.346153 356
-104.88461 -58.26923 404
-86.25 -49.759617 345
-83.653847 -50.192307 348
-72.46154 -45.28846 314
-90.230766 -58.846153 408
-80.384613 -54.807693 380
-66.634613 -47.596153 330
-73.653847 -55.240383 383
-65.221153 -51.490383 357
-65.596153 -54.66346 379
-49.85577 -43.990383 305
-62 -58.125 403
-49.03846 -49.03846 340
-49.673077 -53.221153 369
-39.125 -45.14423 313
-39.923077 -49.903847 346
-30.461538 -41.53846 288
-27.98077 -41.971153 291
-32.451923 -54.08654 375
-26 -48.75 338
-25.307692 -54.23077 376
-16.673077 -41.682693 289
-13.028846 -39.08654 271
-12.038462 -45.14423 313
-11.913462 -59.567307 413
-5.4038463 -40.528847 281
-3.8942308 -58.41346 405
0 -48.89423 339
3.6442308 -54.66346 379
7.3653846 -55.240383 383
12.173077 -60.865383 422
14.961538 -56.10577 389
18.461538 -55.384617 384
19.673077 -49.182693 341
26.653847 -57.115383 396
28.692308 -53.798077 373
35.653847 -59.423077 412
38.26923 -57.403847 398
58.067307 -79.182693 549
60.46154 -75.57692 524
119.5 -137.88461 956
127.21154 -136.29808 945
213.02884 -213.02884 1477
210 -196.875 1365
97 15 65300
98 15 65300
99 15 65300
100 15 65300
101 15 65300
102 15 65300
103 15 65300
104 15 65300
105 15 65300
106 15 65300
107 15 65300
108 15 65300
109 15 65300
110 15 65300
111 15 65300
112 15 65300
113 15 65300
114 15 65300
115 15 65300
116 15 65300
117 15 65300
118 15 65300
946.5 -364.03845 2524
1024.2307 -384.08655 2663
1112.125 -406.875 2821
1083.9231 -387.11539 2684
1071.2788 -373.70193 2591
1078 -367.5 2548
1083.4615 -361.15384 2504
1082.3269 -352.93268 2447
1057.0481 -337.35577 2339
1110.9231 -347.16345 2407
1086.0096 -332.45193 2305
1209.1346 -362.74039 2515
1434.375 -421.875 2925
1513 -436.44232 3026
1535.9807 -434.71155 3014
1577.4231 -438.17307 3038
1577.5481 -430.24039 2983
1632.6154 -437.30768 3032
1661.7693 -437.30768 3032
1704.8654 -440.91345 3057
1738.2307 -441.92307 3064
1755 -438.75 3042
1768.4135 -434.85577 3015
1790.8462 -433.26923 3004
1809.4327 -430.81732 2987
1868.9231 -438.02884 3037
1853.75 -427.78845 2966
1918.4423 -436.00961 3023
1937.2019 -433.70193 3007
1914.4615 -422.30768 2928
1986.4038 -431.82693 2994
1999.0385 -428.36539 2970
2011.8943 -425.04807 2947
2017.3846 -420.28845 2914
2026.4519 -416.39423 2887
2022.1923 -409.90384 2842
155 15 65300
156 15 65300
157 15 65300
158 15 65300
159 15 65300
-460.76923 -80.634613 599
-423.86539 -75.115387 558
-479.25 -86.019234 639
-417.57693 -75.92308 564
-415.07693 -76.46154 568
-749.27887 -139.86539 1039
-1435.8846 -271.65384 2018
7 16 65300
8 16 65300
9 16 65300
10 16 65300
11 16 65300
-1979.1923 -407.48077 3027
-1907.5673 -398.59616 2961
-1928.5962 -409.09616 3039
-1931.875 -416.09616 3091
-1957.5385 -428.21155 3181
-1906.3557 -423.63461 3147
-1923.1923 -434.26923 3226
-1892.1731 -434.26923 3226
-1865.1923 -435.21155 3233
-1851.6923 -439.38461 3264
-1814.1731 -437.90384 3253
-1783.4423 -438.03845 3254
-1760.7693 -440.19232 3270
-1704.4712 -433.86539 3223
-1707.2307 -442.61539 3288
-1647.0769 -435.07693 3232
-1623.5 -437.09616 3247
-1600.6154 -439.38461 3264
-1560.0962 -436.82693 3245
-1520.8846 -434.53845 3228
-1485.2307 -433.19232 3218
-1456.0962 -433.73077 3222
-1423.3462 -433.19232 3218
-1373.7981 -427.40384 3175
-1367.8077 -435.21155 3233
-1317.2885 -428.88461 3186
-1282.6154 -427.53845 3176
-1226.8462 -418.92307 3112
-1202.3077 -420.80768 3126
-1145.625 -411.25 3055
-1086.2885 -400.21155 2973
-993.66345 -375.98077 2793
-680.19232 -264.51923 1965
-216.05769 -86.42308 642
-215.76923 -88.846153 660
-119.94231 -50.884617 378
-129.53847 -56.673077 421
-126.98077 -57.346153 426
-115.96154 -54.115383 402
-102.61539 -49.53846 368
-105.53846 -52.76923 392
-88.78846 -46.03846 342
-88 -47.384617 352
-75.480766 -42.26923 314
-63.46154 -37.01923 275
-79.83654 -48.596153 361
-82.92308 -52.76923 392
-67.846153 -45.23077 336
-76.346153 -53.442307 397
-61.01923 -44.96154 334
-64.903847 -50.48077 375
-52.307693 -43.076923 320
-63.53846 -55.596153 413
-58.701923 -54.78846 407
-52.096153 -52.096153 387
-39.625 -42.673077 317
-43.5 -50.75 377
-33.21154 -42.26923 314
-29.615385 -41.46154 308
-33.83654 -52.634617 391
-22.846153 -39.98077 297
-25.64423 -51.28846 381
-18 -42 312
-14.855769 -41.596153 309
-14.961538 -52.365383 389
-8.7692308 -40.923077 304
-5.5576925 -38.903847 289
-3.3557692 -46.98077 349
0 -48.596153 361
3.7019231 -51.826923 385
7.3269229 -51.28846 381
10.759615 -50.21154 373
13.192307 -46.173077 343
16.346153 -45.76923 340
17.48077 -40.78846 303
20.865385 -41.73077 310
13.461538 -23.557692 175
23.884615 -37.153847 276
15.961538 -22.346153 166
51.192307 -65.153847 484
49.615383 -57.884617 430
117.625 -126.67308 941
115.90385 -115.90385 861
95 16 65300
96 16 65300
97 16 65300
98 16 65300
99 16 65300
100 16 65300
101 16 65300
102 16 65300
103 16 65300
104 16 65300
105 16 65300
106 16 65300
107 16 65300
108 16 65300
109 16 65300
110 16 65300
111 16 65300
112 16 65300
113 16 65300
114 16 65300
115 16 65300
116 16 65300
117 16 65300
118 16 65300
981 -352.15384 2616
1026.1538 -359.15384 2668
1116.4615 -381.23077 2832
1091.1923 -363.73077 2702
1082.8557 -352.55768 2619
1094.5 -348.25 2587
1031.9712 -321.05768 2385
1133.6346 -345.01923 2563
1135.2307 -338.15384 2512
1124.7693 -328.05768 2437
1073.7596 -306.78845 2279
1201.4423 -336.40384 2499
1454.9712 -399.40384 2967
1529 -411.65384 3058
1571.6538 -415.15384 3084
1559.25 -404.25 3003
1627.7885 -414.34616 3078
1664.9231 -416.23077 3092
1657.9327 -407.21155 3025
1704.8654 -411.51923 3057
1712.7019 -406.40384 3019
1742.8846 -406.67307 3021
1773.6923 -407.07693 3024
1809.3269 -408.55768 3035
1822.7596 -405.05768 3009
1832.6154 -400.88461 2978
1879.375 -404.78845 3007
1913.3654 -405.86539 3015
1923.6731 -401.96155 2986
1920.3462 -395.36539 2937
1943.2788 -394.28845 2929
2023.2693 -404.65384 3006
2020.7693 -398.46155 2960
1984.8462 -385.94232 2867
2046.8077 -392.53845 2916
2012.2307 -380.69232 2828
155 16 65300
156 16 65300
157 16 65300
158 16 65300
159 16 65300
-496.92307 -80.75 646
-445.89423 -73.375 587
-459 -76.5 612
-415.35577 -70.125 561
-429.69232 -73.5 588
-682.21155 -118.25 946
-1401.0193 -246.125 1969
7 17 65300
8 17 65300
9 17 65300
10 17 65300
11 17 65300
-1983.7693 -379.25 3034
-1881.7981 -365.125 2921
-1991.4231 -392.25 3138
-1920 -384 3072
-1948.9231 -395.875 3167
-1905.75 -393.25 3146
-1927.9615 -404.25 3234
-1905.0769 -406 3248
-1873.8462 -406 3248
-1825.5962 -402.25 3218
-1799.1154 -403.25 3226
-1786.7307 -407.5 3260
-1751.6154 -406.625 3253
-1717.1635 -405.875 3247
-1695.8077 -408.25 3266
-1658.2885 -406.75 3254
-1618.5 -404.625 3237
-1601.1057 -408.125 3265
-1565.8654 -407.125 3257
-1539.7307 -408.5 3268
-1483.8462 -401.875 3215
-1453.3846 -402 3216
-1430.4231 -404.25 3234
-1410.1443 -407.375 3259
-1353.4231 -399.875 3199
-1327.2115 -401.25 3210
-1279.3846 -396 3168
-1234.7307 -391.5 3132
-1209.2307 -393 3144
-1167.75 -389.25 3114
-1081.1731 -369.875 2959
-673.47113 -236.625 1893
-250.61539 -90.5 724
-57.884617 -21.5 172
-94.480766 -36.125 289
-107.56731 -42.375 339
-102.46154 -41.625 333
-93 -39 312
-91.442307 -39.625 317
-82.53846 -37 296
-82.115387 -38.125 305
-95.278847 -45.875 367
-95 -47.5 380
-95.67308 -49.75 398
-95.53846 -51.75 414
-85.144234 -48.125 385
-79.115387 -46.75 374
-75.721153 -46.875 375
-68.846153 -44.75 358
-61.567307 -42.125 337
-73.730766 -53.25 426
-57.048077 -43.625 349
-66.615387 -54.125 433
-46.153847 -40 320
-57.21154 -53.125 425
-53.75 -53.75 430
-44.076923 -47.75 382
-36.701923 -43.375 347
-35.865383 -46.625 373
-33.923077 -49 392
-27.615385 -44.875 359
-22.75 -42.25 338
-20.25 -43.875 351
-17.211538 -44.75 358
-14.461538 -47 376
-10.903846 -47.25 378
-7.6153846 -49.5 396
-3.8461537 -50 400
0 -39.875 319
3.4519231 -44.875 359
6.5 -42.25 338
11.307693 -49 392
14.538462 -47.25 378
21.201923 -55.125 441
24.288462 -52.625 421
43.21154 -80.25 642
50.846153 -82.625 661
110.16346 -159.125 1273
109.61539 -142.5 1140
138.875 -164.125 1313
119.88461 -129.875 1039
93 17 65300
94 17 65300
95 17 65300
96 17 65300
97 17 65300
98 17 65300
99 17 65300
100 17 65300
101 17 65300
102 17 65300
103 17 65300
104 17 65300
105 17 65300
106 17 65300
107 17 65300
108 17 65300
109 17 65300
110 17 65300
111 17 65300
112 17 65300
113 17 65300
114 17 65300
115 17 65300
116 17 65300
117 17 65300
118 17 65300
957.375 -319.125 2553
1007.6923 -327.5 2620
1129.8654 -358.25 2866
1082.3077 -335 2680
1107.6635 -334.875 2679
1078.4231 -318.625 2549
1121.1057 -323.875 2591
1126.1154 -318.25 2546
1068.3462 -295.5 2364
1153.3846 -312.375 2499
1107.6827 -293.875 2351
1194.2307 -310.5 2484
1468.7019 -374.375 2995
1524 -381 3048
1587.4519 -389.375 3115
1578.4615 -380 3040
1595 -377 3016
1660.6154 -385.5 3084
1679.8557 -383.125 3065
1713.2307 -384 3072
1705.8943 -375.875 3007
1766.5385 -382.75 3062
1787.1827 -380.875 3047
1781.3077 -373.5 2988
1823.3654 -376.25 3010
1822.7693 -370.25 2962
1863.75 -372.75 2982
1894.9615 -373.25 2986
1940.4231 -376.5 3012
1927.5385 -368.5 2948
1975.125 -372.125 2977
2007.1154 -372.75 2982
2006.4327 -367.375 2939
1977.2307 -357 2856
2039.0865 -363.125 2905
1960.2885 -344.375 2755
155 17 65300
156 17 65300
157 17 65300
158 17 65300
159 17 65300
-485.38461 -72.807693 631
-498.30768 -75.692307 656
-483 -74.307693 644
-429.42307 -66.92308 580
-442.11539 -69.807693 605
-737.74036 -118.03846 1023
-1359.75 -220.5 1911
7 18 65300
8 18 65300
9 18 65300
10 18 65300
-1961.1923 -341.07693 2956
-1980.5 -349.5 3029
-1923.6731 -344.53845 2986
-1941.9231 -353.07693 3060
-1963.75 -362.53845 3142
-1952 -366 3172
-1953.6057 -372.11539 3225
-1922.5962 -372.11539 3225
-1891.5865 -372.11539 3225
-1860.5769 -372.11539 3225
-1860.2019 -378.34616 3279
-1843.7307 -381.46155 3306
-1787.2788 -376.26923 3261
-1751.6154 -375.34616 3253
-1720.8654 -375.46155 3254
-1692.6923 -376.15384 3260
-1653.7019 -374.42307 3245
-1617.5 -373.26923 3235
-1599.6346 -376.38461 3262
-1550.9615 -372.23077 3226
-1543.0288 -377.88461 3275
-1491.6923 -372.92307 3232
-1454.7404 -371.42307 3219
-1433.9615 -374.07693 3242
-1414.4712 -377.19232 3269
-1343.2693 -366.34616 3175
-1306.5385 -364.61539 3160
-1269.2885 -362.65384 3143
-1230.3943 -360.11539 3121
-1203.0769 -360.92307 3128
-1159.125 -356.65384 3091
-1098.7115 -346.96155 3007
-547.88464 -177.69231 1540
-249.23077 -83.07692 720
-87.83654 -30.115385 261
-118.34615 -41.76923 362
-129.14423 -46.96154 407
-107.38461 -40.26923 349
-110.88461 -42.923077 372
-134.13461 -53.653847 465
-108.75 -45 390
-81.846153 -35.076923 304
-95.79808 -42.576923 369
-89.75 -41.423077 359
-96.153847 -46.153847 400
-98.07692 -49.03846 425
-77.403847 -40.384617 350
-79.32692 -43.26923 375
-72.490387 -41.423077 359
-75.57692 -45.346153 393
-61.932693 -39.115383 339
-62.48077 -41.653847 361
-57.865383 -40.846153 354
-49.846153 -37.384617 324
-42.83654 -34.26923 297
-44.01923 -37.73077 327
-44.625 -41.192307 357
-41.53846 -41.53846 360
-39.028847 -42.576923 369
-37.21154 -44.653847 387
-25.35577 -33.807693 293
-24.76923 -37.153847 322
-22.413462 -38.423077 333
-19.961538 -39.923077 346
-16.442308 -39.46154 342
-13.076923 -39.23077 340
-10.442307 -41.76923 362
-7.5769229 -45.46154 394
-3.1923077 -38.307693 332
0 -41.53846 360
3 -36 312
5.3076925 -31.846153 276
9.9807692 -39.923077 346
8.1538458 -24.461538 212
14.182693 -34.03846 295
9.9807692 -19.961538 173
37.01923 -63.46154 550
44.846153 -67.269234 583
97.528847 -130.03847 1127
97.980766 -117.57692 1019
122.05769 -133.15384 1154
92 18 65300
93 18 65300
94 18 65300
95 18 65300
96 18 65300
97 18 65300
98 18 65300
99 18 65300
100 18 65300
101 18 65300
102 18 65300
103 18 65300
104 18 65300
105 18 65300
106 18 65300
107 18 65300
108 18 65300
109 18 65300
110 18 65300
111 18 65300
112 18 65300
113 18 65300
114 18 65300
115 18 65300
116 18 65300
117 18 65300
118 18 65300
985.5 -303.23077 2628
1007.3077 -302.19232 2619
1117.25 -327 2834
1090.3846 -311.53845 2700
1113.0385 -310.61539 2692
1107.1923 -301.96155 2617
1150.5288 -306.80768 2659
1104.8846 -288.23077 2498
1121.6731 -286.38461 2482
1123.3846 -280.84616 2434
1130.7693 -276.92307 2400
1208.6538 -290.07693 2514
1483.4135 -349.03845 3025
1523 -351.46155 3046
1580.8269 -357.92307 3102
1610.6538 -357.92307 3102
1614.5673 -352.26923 3053
1638 -351 3042
1667.7981 -351.11539 3043
1693.7115 -350.42307 3037
1731.4231 -352.15384 3052
1746.3462 -349.26923 3027
1793.6346 -352.84616 3058
1783.0962 -345.11539 2991
1827.6057 -348.11539 3017
1870.7693 -350.76923 3040
1881.875 -347.42307 3011
1893.0577 -344.19232 2983
1933.9807 -346.38461 3002
1958.9231 -345.69232 2996
1987.7307 -345.69232 2996
1969.4231 -337.61539 2926
2035.7885 -344.07693 2982
2015.3077 -335.88461 2911
2099.4519 -345.11539 2991
1962.4231 -318.23077 2758
155 18 65300
156 18 65300
157 18 65300
158 18 65300
159 18 65300
-500 -68.75 650
-435.25961 -60.60577 573
-446.25 -62.932693 595
-480.50961 -68.644234 649
-413.61539 -59.865383 566
-670.6731 -98.365387 930
-1319.9038 -196.20192 1855
7 19 65300
8 19 65300
9 19 65300
10 19 65300
-1970.4807 -314.13461 2970
-1941.2693 -314.02884 2969
-1950.7307 -320.26923 3028
-1943.1923 -323.86539 3062
-1920 -324.92307 3072
-1945.8462 -334.44232 3162
-1894.2404 -330.74039 3127
-1929.75 -342.375 3237
-1911.5288 -344.70193 3259
-1877.3077 -344.17307 3254
-1860.2019 -346.81732 3279
-1808.0385 -342.90384 3242
-1790.5673 -345.54807 3267
-1741.9231 -342.16345 3235
-1729.8557 -345.97116 3271
-1687.5 -343.75 3250
-1642.4904 -340.89423 3223
-1624.5 -343.64423 3249
-1582.9615 -341.42307 3228
-1551.9231 -341.42307 3228
-1543.0288 -346.39423 3275
-1503.2307 -344.49039 3257
-1454.2885 -340.36539 3218
-1434.4038 -343.00961 3243
-1382.4519 -337.93268 3195
-1347.9231 -336.98077 3186
-1297.8557 -332.00961 3139
-1274.5385 -333.80768 3156
-1231.5769 -330.42307 3124
-1195.7693 -328.83655 3109
-1149.375 -324.18268 3065
-1081.9038 -313.18268 2961
-652.125 -193.875 1833
-312.23077 -95.403847 902
